ncols        354
nrows        38
xllcorner    41458
yllcorner    6937387
cellsize     5.0
NODATA_value -9999
0.00 0.00 152.17 152.81 153.70 154.43 155.02 155.52 155.03 154.39 154.91 156.15 157.01 161.71 163.44 164.23 164.65 165.51 167.14 167.95 169.25 169.96 171.23 172.71 174.00 174.83 175.69 176.81 178.09 179.61 180.99 182.56 183.48 184.30 185.32 186.35 187.53 188.06 188.13 189.04 190.74 192.21 192.25 193.21 194.51 196.47 198.21 199.24 200.30 200.77 201.19 202.28 204.06 204.32 205.03 205.61 205.49 205.53 206.58 207.29 208.13 210.56 211.68 213.37 215.22 216.14 216.90 217.48 218.11 218.80 220.51 222.31 223.33 224.17 224.71 225.76 226.98 228.09 229.09 230.17 232.14 233.20 234.46 235.44 236.10 236.69 239.16 240.03 241.40 242.10 245.82 245.45 247.73 247.97 248.69 249.34 250.21 248.45 250.02 250.03 249.78 251.49 252.72 253.63 254.72 256.42 255.38 255.26 257.52 260.03 263.70 267.95 271.43 272.93 274.45 276.40 277.76 279.28 281.32 282.85 283.50 284.94 286.57 289.67 293.19 294.85 293.01 293.51 298.70 301.96 303.71 304.93 307.16 308.71 310.41 312.18 314.14 316.55 317.31 317.31 318.82 323.08 327.06 330.29 333.20 335.18 337.86 341.00 344.08 346.53 349.23 352.48 355.03 357.86 360.07 363.50 367.00 369.94 372.25 375.39 379.73 385.06 387.79 390.58 393.96 397.31 399.89 402.36 404.50 407.39 410.11 412.45 414.62 416.93 419.09 420.77 422.59 424.30 426.41 428.36 430.39 433.09 435.58 437.79 439.27 441.49 443.61 445.39 447.96 450.86 453.45 455.72 458.38 460.55 462.94 465.57 467.91 470.25 472.97 475.15 477.69 480.08 482.34 484.50 486.28 488.23 489.61 491.88 494.36 498.01 502.72 505.95 510.06 515.20 519.28 525.39 529.18 531.55 534.52 537.05 540.78 543.64 546.70 549.56 552.45 555.19 557.88 560.21 562.36 566.55 569.12 571.41 572.14 575.59 579.04 581.72 584.06 585.76 587.87 590.46 593.16 595.25 596.87 598.73 600.44 601.96 603.48 605.52 607.77 611.61 613.93 617.76 623.11 628.17 631.70 635.01 638.64 641.97 645.33 649.36 653.53 658.28 661.64 665.60 668.68 671.84 674.66 677.09 679.53 680.85 682.57 685.22 688.10 691.21 693.62 696.84 699.39 700.88 703.79 705.51 707.96 710.83 713.24 716.51 719.71 723.15 727.15 730.89 734.79 738.45 742.43 745.84 748.78 752.08 755.22 758.24 761.76 765.00 768.18 771.58 775.12 778.17 781.32 784.45 787.71 790.30 793.57 796.60 799.41 802.41 806.08 809.51 812.52 815.19 817.98 820.13 822.64 824.84 827.32 829.57 831.51 834.79 836.82 838.19 840.13 841.37 843.10 844.49 845.52 846.19 847.80 849.38 851.43 852.77 854.19 855.44 856.91 858.16 859.70 860.98 862.51 863.26 864.61 865.76 866.38 867.20 868.08 868.74 870.27 873.00 874.84 0.00 0.00 0.00
0.00 0.00 151.45 152.55 153.06 153.21 154.00 153.43 152.66 153.02 154.25 156.04 160.19 162.02 162.52 162.56 163.13 164.38 165.38 166.20 167.29 168.87 170.21 171.17 172.02 172.63 173.85 175.50 176.82 178.28 179.89 181.03 182.07 182.91 183.78 184.81 185.92 186.86 188.20 189.65 190.34 190.44 190.78 192.35 193.68 195.48 196.77 197.64 198.78 199.39 200.69 201.61 202.79 203.44 203.70 204.29 203.69 203.51 204.32 205.77 208.08 209.88 210.81 212.54 213.55 214.40 215.03 215.62 216.33 216.32 218.80 219.99 221.72 222.93 223.41 224.72 225.39 226.11 227.53 228.70 229.52 231.59 232.73 233.30 233.01 236.60 237.53 238.96 238.64 241.21 241.84 244.10 245.31 246.23 246.55 246.71 247.75 246.19 246.83 247.63 248.18 249.09 249.70 251.05 252.55 251.75 251.52 254.25 258.21 261.69 265.86 268.47 270.34 271.92 273.86 274.85 276.44 277.87 279.03 280.09 282.35 284.82 287.34 288.81 290.60 291.35 289.78 293.99 298.24 299.86 301.36 303.70 305.70 307.96 310.15 311.52 313.43 313.14 314.16 316.49 319.51 322.83 325.51 328.87 332.28 334.93 337.71 340.53 343.22 345.68 348.29 352.09 354.36 356.85 358.85 361.95 365.17 368.21 370.75 374.14 378.46 383.35 386.52 389.75 393.01 396.06 398.18 400.93 403.37 405.91 408.43 410.84 412.58 414.72 416.60 418.30 420.27 422.21 424.39 426.58 428.92 431.20 433.01 434.58 437.14 439.39 441.36 443.83 446.01 448.48 451.30 453.51 455.96 458.70 460.84 462.58 465.32 468.00 470.39 472.50 474.70 477.24 479.38 481.37 483.48 485.52 484.96 488.04 489.91 494.98 499.74 506.06 510.31 514.99 518.54 523.40 526.51 529.74 531.80 535.60 539.03 541.33 543.87 547.62 550.36 552.80 554.83 558.02 561.77 565.22 566.59 567.62 571.08 574.36 576.71 579.32 580.61 582.87 585.12 587.86 589.99 592.00 593.59 595.39 596.67 597.71 600.44 603.62 605.57 609.59 613.92 618.25 623.27 627.43 630.86 634.35 638.01 641.36 644.56 648.50 652.44 656.48 660.15 663.89 666.63 669.82 672.51 673.93 675.40 677.42 679.51 682.29 685.25 688.45 691.00 693.78 696.12 698.39 700.79 702.97 705.44 707.98 711.10 714.05 717.70 721.44 725.27 729.37 733.84 737.80 741.44 744.32 747.28 750.32 753.06 756.98 760.05 763.15 766.57 769.98 773.15 776.15 778.95 782.80 785.69 788.35 791.12 794.15 797.74 801.35 804.68 808.00 810.70 814.14 816.60 818.68 821.09 823.04 825.30 827.39 829.76 832.83 834.92 836.31 838.39 839.37 841.03 842.42 843.37 844.50 846.08 847.64 849.35 850.71 852.27 853.55 854.82 856.19 857.56 859.33 860.60 861.45 862.75 863.98 864.48 865.38 866.68 867.06 868.78 870.96 873.03 0.00 0.00 0.00
0.00 0.00 0.00 150.48 151.29 151.95 151.92 151.06 151.92 152.73 155.42 159.44 160.52 160.65 160.43 160.86 161.99 162.82 163.60 164.68 166.44 167.84 168.47 169.15 169.98 171.06 172.12 173.75 175.23 177.09 178.47 179.66 180.69 181.33 182.42 183.94 185.23 186.78 187.56 188.01 188.51 189.13 189.74 191.64 193.19 194.41 195.18 195.95 197.23 197.94 199.54 200.57 201.65 202.31 201.17 201.06 201.25 202.45 204.21 207.10 208.48 208.55 209.49 210.59 211.68 212.31 213.77 213.76 214.05 215.70 217.13 218.17 219.33 220.72 221.75 222.84 223.34 225.36 226.72 227.15 228.04 229.28 230.03 229.63 233.35 235.34 236.95 237.12 238.10 239.21 239.49 241.82 242.42 243.36 244.18 244.28 244.60 244.23 244.81 244.90 246.89 247.48 248.65 248.89 248.18 248.32 251.97 256.31 259.68 262.92 265.05 266.72 269.19 270.72 272.26 274.31 274.64 275.23 277.44 280.12 282.46 284.86 285.98 287.57 288.47 287.01 289.78 294.14 295.83 297.48 299.78 301.67 304.11 306.54 308.11 309.22 308.95 308.87 313.55 317.14 318.45 321.13 324.60 328.02 331.16 333.99 336.88 339.40 341.98 344.57 347.08 350.12 352.79 355.33 357.71 360.56 364.07 366.54 368.99 372.93 377.40 381.46 384.76 388.32 391.40 394.02 396.13 398.54 401.27 403.91 406.39 408.47 410.30 411.90 413.91 416.02 417.52 419.96 422.49 425.06 427.10 428.73 430.39 432.69 434.73 437.22 440.09 442.10 444.02 446.45 449.08 451.46 453.91 456.27 457.71 460.34 463.30 465.67 467.40 469.89 471.29 473.89 476.10 477.92 480.05 482.08 482.40 483.29 488.78 493.73 500.29 505.51 508.97 513.56 516.63 521.20 524.20 527.00 530.47 533.48 536.89 538.67 541.81 545.00 547.29 549.85 552.67 555.85 560.01 561.86 562.86 565.63 569.20 571.11 573.80 576.26 576.90 580.04 582.50 584.96 586.61 588.50 589.76 591.28 592.72 594.14 596.35 601.11 605.77 610.56 614.28 618.69 622.72 626.30 629.65 633.71 637.36 640.33 643.36 647.72 651.33 654.71 658.22 661.80 664.25 666.87 669.54 670.99 672.59 674.69 677.15 679.84 682.83 685.65 688.86 690.85 693.80 696.45 697.54 700.29 702.82 705.59 708.74 712.03 716.00 721.27 725.49 729.54 732.79 736.85 739.68 742.70 745.43 748.20 751.08 754.62 757.78 761.38 764.75 767.87 771.25 773.85 776.68 780.51 783.22 786.39 789.60 792.87 796.14 799.73 803.29 806.36 809.53 812.38 815.17 817.61 819.48 821.90 823.72 825.63 828.23 830.74 832.75 834.30 835.81 837.19 838.91 840.38 841.78 842.90 844.07 845.94 847.46 848.92 850.31 851.71 853.26 854.58 855.68 857.49 858.55 859.66 860.87 862.03 862.65 863.99 865.32 865.56 867.58 869.21 871.27 0.00 0.00 0.00
0.00 0.00 0.00 149.37 150.45 150.39 149.88 150.71 151.77 155.85 157.81 158.60 158.10 158.09 158.60 159.58 160.41 161.28 162.24 163.85 165.70 166.36 166.67 167.28 168.17 169.57 170.80 172.37 174.02 175.51 176.67 178.39 179.35 180.16 181.33 183.19 184.68 185.83 186.45 186.89 187.52 188.02 189.49 191.27 192.31 192.92 194.01 194.65 196.17 197.06 198.26 199.18 200.11 200.71 198.96 198.79 200.63 203.14 204.61 205.88 206.48 207.07 208.15 208.98 209.68 210.57 211.95 211.89 211.55 214.20 215.25 216.44 217.35 218.04 219.36 220.12 221.59 223.70 224.48 225.90 226.72 227.54 226.12 229.27 232.37 233.71 235.07 235.12 237.21 236.64 238.52 239.57 240.49 241.60 242.46 242.16 241.77 241.93 242.57 243.37 245.53 246.73 246.56 244.74 245.28 248.66 253.14 256.25 259.04 261.34 263.38 265.57 267.49 269.08 270.66 270.85 272.02 274.24 277.04 279.22 281.45 282.57 284.85 285.42 283.95 286.40 290.01 292.27 294.27 295.95 298.03 299.16 300.09 302.15 303.55 304.99 305.65 309.99 314.44 315.75 317.80 320.50 323.32 326.25 329.73 332.92 335.49 337.84 340.68 343.06 345.81 348.52 351.54 353.82 356.69 359.36 361.49 364.10 367.76 371.73 375.32 379.04 382.63 386.65 389.57 392.03 394.03 396.17 398.78 401.54 403.73 406.00 408.04 409.64 412.22 413.98 415.60 418.00 420.72 422.79 424.64 425.88 428.17 430.22 432.59 436.12 438.56 440.88 442.39 444.94 446.79 449.10 451.28 453.23 455.51 458.34 460.68 462.64 465.08 465.88 467.27 469.98 472.69 474.91 475.61 476.26 477.34 482.92 488.79 493.86 498.63 503.07 507.43 511.14 514.90 518.17 521.32 524.43 528.13 531.13 533.52 536.48 539.22 541.84 544.45 546.88 550.50 554.05 556.11 557.76 560.96 564.66 566.24 568.65 571.24 572.71 574.20 577.11 579.61 581.52 583.22 584.62 585.92 587.53 589.13 591.63 596.21 601.11 605.82 610.11 614.15 617.97 621.62 624.85 628.58 632.82 635.73 638.48 642.01 646.59 649.78 653.06 655.79 658.84 661.87 664.42 666.59 667.82 669.95 671.95 674.56 677.25 679.96 683.20 686.92 688.80 691.58 693.21 695.04 697.56 700.52 703.15 707.03 711.39 717.70 720.62 724.92 727.91 731.12 734.87 738.05 741.19 743.59 746.61 749.36 752.74 756.06 759.19 762.49 765.58 768.68 771.63 774.79 778.45 781.12 784.20 787.83 791.28 794.15 797.59 800.81 804.00 807.42 810.48 813.77 816.16 817.54 820.13 822.34 824.11 826.41 828.61 830.50 832.17 833.92 834.75 836.87 838.56 839.86 841.21 842.22 843.93 845.03 846.74 848.32 850.31 851.65 852.89 854.19 855.53 856.76 858.05 858.92 860.40 861.48 862.71 863.42 863.82 865.56 867.62 869.19 0.00 0.00 0.00
0.00 0.00 0.00 148.86 148.92 148.75 149.45 150.43 155.33 156.50 156.63 155.94 156.36 157.29 158.08 158.94 158.99 159.97 161.61 163.19 164.23 164.76 165.21 166.14 167.09 168.32 169.87 171.56 172.98 173.84 175.50 176.94 178.10 179.12 180.71 182.50 183.60 184.65 185.29 185.94 186.66 187.69 188.72 190.35 191.45 192.35 193.17 193.95 194.84 195.63 196.71 197.38 198.12 197.99 196.31 197.93 200.18 202.51 203.20 203.75 204.96 205.71 206.64 207.31 208.20 209.03 209.36 209.81 210.89 212.27 213.65 214.62 215.43 216.56 217.12 218.84 219.87 221.85 222.41 224.02 224.15 223.89 225.13 228.93 229.77 231.99 232.51 233.95 235.60 235.30 237.31 238.39 239.37 240.60 240.64 240.34 240.82 240.36 240.08 242.26 243.53 243.30 242.87 242.32 244.83 249.39 252.89 255.64 258.04 259.45 261.83 263.26 265.00 265.70 266.72 268.44 271.71 274.47 276.37 278.20 279.51 280.86 280.31 279.87 281.99 287.77 289.49 291.41 293.13 295.06 295.03 294.75 296.28 297.75 299.64 303.08 307.20 311.26 313.46 315.80 317.72 319.90 322.45 325.86 328.13 331.06 333.53 336.44 338.58 342.07 344.61 347.45 350.27 353.22 355.70 358.35 360.70 363.45 367.06 370.06 373.41 376.90 380.71 384.60 386.91 389.29 391.91 394.04 396.26 398.91 401.20 403.16 405.41 407.59 409.50 410.97 413.63 416.24 418.61 420.50 421.86 424.04 425.99 429.04 431.84 434.02 437.04 439.02 440.76 442.53 444.69 446.98 449.10 450.96 453.51 455.97 458.29 460.58 461.78 461.37 463.26 465.96 469.10 469.68 469.66 470.60 476.80 482.24 487.48 492.62 496.97 501.60 506.12 510.77 513.55 515.84 519.22 522.67 525.32 527.69 531.75 534.75 537.17 539.10 541.91 545.16 548.26 550.59 552.69 555.69 559.44 561.43 563.66 566.30 567.79 569.65 571.98 573.97 575.84 577.92 579.34 580.67 581.56 583.54 587.02 591.81 596.52 600.90 604.87 609.10 613.01 616.36 620.23 623.63 627.92 631.36 634.17 636.86 640.42 644.16 647.24 650.75 653.52 656.19 659.26 661.63 663.64 665.04 667.20 669.39 671.98 674.33 676.85 680.32 683.55 686.44 688.74 689.96 691.78 694.68 698.07 702.15 706.36 711.28 715.49 718.45 722.83 726.05 729.32 733.04 736.26 739.14 741.53 744.44 747.48 750.90 753.86 757.11 760.36 763.36 766.06 769.87 773.22 776.53 779.44 782.81 785.82 788.46 792.08 795.09 799.02 802.17 805.68 809.06 811.64 814.16 815.85 817.91 820.13 821.94 824.45 826.88 828.39 830.25 831.44 832.52 834.99 836.46 837.68 839.17 840.22 841.35 843.29 845.09 846.68 848.34 849.79 851.18 852.48 853.63 855.07 856.07 857.78 859.00 859.84 860.90 862.14 862.38 863.63 865.05 866.97 0.00 0.00 0.00
0.00 0.00 0.00 147.45 147.32 148.28 149.93 154.62 155.26 154.88 154.52 155.16 156.21 156.92 156.66 157.12 157.94 159.32 160.76 162.02 162.72 163.33 163.95 165.01 166.18 167.63 169.46 170.83 172.26 173.35 174.70 175.92 176.84 177.96 179.59 181.30 182.35 183.18 184.00 184.80 185.63 186.37 187.16 188.63 189.92 190.85 191.42 192.34 193.33 194.23 195.04 195.68 196.21 194.86 195.11 198.37 199.62 200.80 201.26 202.62 203.80 204.64 205.36 206.03 207.10 207.57 207.44 207.68 209.49 210.50 211.85 213.00 213.13 214.23 215.35 216.22 218.15 219.45 220.00 221.51 221.79 221.52 224.47 225.91 228.12 229.82 229.54 232.29 231.63 234.61 235.67 236.74 238.25 238.59 239.39 239.80 239.52 238.17 238.63 240.34 240.68 241.17 239.89 241.68 245.71 248.68 251.08 254.15 256.69 258.48 259.64 261.06 261.49 262.17 264.44 268.28 270.52 272.68 275.03 276.08 277.16 276.05 275.84 279.51 284.29 286.16 288.30 290.54 291.88 291.57 290.38 291.19 293.73 297.29 301.50 305.54 308.78 310.77 313.09 315.70 317.80 319.73 321.99 324.56 327.66 330.08 332.33 335.04 337.71 340.80 343.82 346.23 348.77 351.32 353.73 356.65 359.66 362.33 365.34 368.52 371.57 375.19 379.13 382.50 385.12 387.22 389.57 391.95 394.15 395.96 398.78 400.71 403.08 405.20 406.70 408.98 411.05 413.55 415.70 417.28 419.10 421.85 425.29 427.90 430.51 432.97 435.60 437.57 439.33 441.16 443.13 444.58 446.27 448.74 451.24 453.33 455.92 457.79 457.60 457.06 459.56 463.16 463.71 464.30 467.15 471.64 476.80 482.90 487.04 491.59 494.30 498.51 503.43 508.34 511.21 514.04 516.81 519.86 523.23 526.08 529.20 532.36 534.60 537.22 539.88 542.47 545.17 548.01 550.11 553.99 556.60 558.77 561.31 563.49 564.51 567.01 568.69 570.57 572.15 573.91 575.28 576.26 577.77 582.53 587.14 592.33 596.47 600.49 604.52 607.86 611.39 615.49 619.19 622.40 625.89 629.78 632.22 635.63 638.83 642.02 645.24 648.15 650.89 653.73 656.31 658.57 660.06 662.01 664.56 666.70 669.05 671.16 673.89 677.19 679.93 683.33 684.91 686.46 689.01 693.25 696.94 700.84 705.55 709.00 712.39 716.33 720.53 724.67 728.15 730.84 734.36 737.18 739.67 742.34 745.15 748.61 751.67 754.47 757.75 761.02 764.80 768.51 771.36 774.47 777.73 780.97 783.44 786.13 789.45 792.81 796.51 800.27 803.69 806.71 809.40 811.57 813.50 816.28 818.31 820.41 822.68 824.31 826.35 827.86 829.23 830.60 832.95 834.30 835.66 836.99 837.96 839.48 841.68 843.42 845.09 846.48 848.10 849.48 850.85 852.05 853.45 854.55 856.25 857.70 858.58 858.95 859.77 860.86 861.48 862.85 864.50 0.00 0.00 0.00
0.00 0.00 0.00 146.11 147.11 150.16 153.51 154.06 153.30 152.90 153.65 154.81 156.00 156.22 155.58 155.88 156.92 158.43 159.66 160.86 161.21 161.88 162.87 164.10 165.84 167.27 168.55 170.12 171.74 172.58 173.42 174.97 176.09 177.19 178.72 179.89 180.76 181.54 182.58 183.92 184.02 184.78 185.78 186.91 187.97 188.88 189.89 190.52 191.70 192.56 193.15 193.96 193.56 193.04 196.26 197.65 198.59 199.30 200.04 201.47 202.62 203.72 204.33 204.94 205.87 206.18 206.27 206.94 207.85 208.98 209.71 210.76 211.39 212.46 213.94 214.69 215.98 217.36 218.27 219.39 219.76 220.55 222.73 223.80 225.66 226.28 228.88 230.20 230.94 232.51 233.52 234.68 235.97 236.87 238.19 238.44 237.48 237.18 237.57 238.65 239.68 238.96 238.00 241.93 244.16 246.17 249.42 251.94 254.93 256.40 256.98 257.56 257.83 259.98 263.52 266.64 268.81 271.03 272.73 274.07 271.78 272.51 277.57 280.63 281.93 283.97 286.45 288.05 287.11 287.22 287.96 291.28 295.59 299.35 303.00 305.90 308.20 310.25 312.37 315.18 317.51 319.60 321.32 323.34 325.03 328.30 331.72 334.51 336.91 339.50 342.34 344.22 347.11 349.20 352.25 355.07 358.43 361.02 364.18 366.99 370.14 374.00 377.61 380.56 382.90 385.26 387.56 389.58 391.83 393.95 396.17 398.48 400.93 402.81 404.53 406.14 408.12 410.56 412.10 413.88 418.31 421.25 424.15 426.72 429.36 431.62 434.08 435.98 437.68 439.35 441.02 441.89 443.74 446.39 448.85 451.37 453.31 453.79 454.00 454.59 457.31 457.98 458.97 464.03 468.44 473.03 478.13 482.04 485.47 489.30 492.27 497.81 501.62 505.61 508.76 511.10 514.55 518.33 521.20 524.25 526.30 528.56 531.86 534.76 537.18 539.76 543.06 545.61 548.96 551.67 553.94 556.06 558.63 559.94 561.85 564.03 565.58 567.13 568.54 569.49 570.23 572.35 577.91 582.67 587.08 591.58 595.60 599.82 603.60 607.11 610.44 614.74 617.89 620.84 624.46 627.81 630.69 633.86 636.94 640.14 643.25 645.84 648.58 650.73 653.17 655.33 656.97 659.30 661.35 663.56 665.72 668.08 670.91 673.76 676.97 679.72 681.35 684.10 688.23 691.95 695.71 699.67 703.17 707.23 712.42 716.80 719.84 723.42 726.25 728.80 731.58 734.93 737.39 739.37 742.11 746.09 749.45 752.59 756.26 759.87 763.18 766.79 769.61 772.44 776.38 779.32 782.03 784.52 786.78 790.45 793.92 798.24 801.36 804.24 806.85 808.84 811.69 814.04 816.33 818.11 820.31 822.36 824.04 825.05 826.52 828.64 830.70 832.42 833.93 835.19 836.39 837.48 839.48 841.46 843.20 844.69 846.38 847.79 849.11 850.67 851.80 852.70 853.98 855.54 856.64 856.78 857.57 858.45 859.66 861.55 863.27 0.00 0.00 0.00
0.00 0.00 0.00 145.53 151.23 152.34 152.45 151.79 151.00 151.67 150.95 151.88 154.57 155.59 154.61 155.16 156.11 157.15 158.36 159.14 159.77 160.64 161.45 162.77 164.63 166.13 167.56 168.82 170.27 171.39 172.87 174.45 175.23 176.44 177.61 178.46 179.07 179.90 181.46 181.99 182.11 183.05 184.30 185.56 186.65 187.71 188.23 188.68 189.55 190.72 191.04 190.86 191.25 192.70 195.75 196.32 197.35 197.56 198.46 199.81 200.77 201.91 202.47 204.07 204.54 204.58 205.43 206.17 206.55 207.42 208.16 209.43 210.45 211.30 212.34 213.85 214.82 216.30 217.43 218.25 218.03 219.71 220.75 221.34 222.38 225.82 227.60 226.94 229.67 230.38 231.54 232.63 233.63 234.79 235.76 236.21 235.98 234.65 236.26 237.24 238.92 236.15 237.64 240.23 241.79 245.10 248.07 250.46 252.51 253.51 253.50 253.95 255.60 258.78 262.12 264.84 266.85 268.33 271.22 269.92 268.19 272.68 276.91 277.85 280.08 281.91 282.82 282.48 282.74 285.47 289.07 292.61 296.92 300.35 302.68 305.08 307.56 309.33 311.69 313.99 316.24 318.29 320.24 322.00 324.05 326.91 329.37 332.15 334.71 337.43 339.85 342.14 344.75 347.00 350.52 353.79 356.77 359.58 362.64 364.92 368.60 372.34 375.85 378.76 380.58 382.81 385.28 387.73 389.66 391.68 394.20 396.78 398.39 400.35 402.02 403.68 405.17 407.04 409.56 411.91 416.94 419.84 422.48 425.12 427.50 429.79 431.89 433.63 435.53 437.13 438.30 439.79 441.79 444.38 446.63 448.63 450.24 450.73 451.17 452.91 453.36 455.19 460.86 465.58 469.76 473.92 477.12 480.11 482.80 486.79 489.65 496.31 500.26 503.12 506.19 509.48 512.17 515.20 519.43 520.97 523.59 526.24 529.62 532.60 534.84 537.63 541.54 544.50 546.64 548.84 551.17 553.32 555.76 556.55 559.18 560.65 561.93 563.26 563.69 564.96 569.24 573.65 578.21 582.07 586.39 590.98 594.97 598.42 602.19 605.92 609.90 613.15 616.14 619.18 622.59 625.54 628.65 631.64 635.03 638.02 640.71 643.34 645.43 647.66 649.73 651.67 653.61 656.20 658.52 660.59 662.74 665.45 667.41 670.78 673.64 675.89 678.52 682.33 686.44 690.69 694.26 698.01 702.29 709.51 712.88 715.15 718.99 721.45 723.52 726.46 729.01 731.53 734.72 736.41 740.26 744.32 747.62 751.17 755.20 758.59 761.94 764.79 767.89 771.51 774.60 777.31 779.89 782.25 784.21 787.39 791.31 794.90 798.64 801.68 804.31 807.03 809.53 811.79 813.81 815.89 818.08 820.18 821.78 823.08 824.52 826.59 828.71 830.48 831.84 833.22 834.58 835.63 837.19 839.64 841.34 842.93 844.49 845.99 847.19 848.58 849.32 850.03 851.27 852.50 854.20 854.45 855.20 856.25 858.09 859.99 861.49 0.00 0.00 0.00
0.00 0.00 0.00 149.95 150.58 150.30 150.13 149.43 149.67 149.76 149.18 150.34 151.39 152.86 153.59 154.62 155.85 156.78 157.52 158.30 159.04 159.58 160.52 161.73 163.46 164.82 166.24 167.72 169.30 170.31 171.69 172.99 174.32 175.57 176.59 176.90 176.93 178.37 179.13 179.67 180.49 181.63 182.90 183.95 185.33 186.11 186.64 186.99 187.62 188.72 188.71 188.17 188.54 192.97 194.37 195.05 195.67 196.10 196.91 198.00 198.66 199.51 200.61 201.48 202.65 204.29 205.12 205.37 205.87 206.04 207.25 209.01 209.82 209.83 210.85 211.63 213.65 215.52 215.97 215.60 217.83 218.19 219.07 220.05 222.20 223.92 224.77 225.47 227.83 228.44 229.78 230.73 231.29 232.87 234.37 234.33 233.94 231.89 234.19 236.40 236.99 234.42 237.00 239.17 241.24 243.61 245.79 247.80 248.95 249.71 250.61 252.00 254.63 257.38 260.49 262.96 264.70 267.17 269.27 266.15 266.86 271.62 274.16 276.07 278.16 278.61 278.24 278.45 281.63 285.64 289.70 294.08 298.15 299.91 301.79 304.14 306.69 308.66 310.43 312.30 314.67 317.12 319.36 321.27 322.62 325.10 327.40 330.00 332.44 334.79 337.18 339.50 341.83 344.77 349.36 352.45 355.45 358.22 361.15 363.57 367.07 371.03 373.67 376.53 378.77 380.84 383.37 385.51 387.61 389.39 391.87 393.75 395.83 397.70 399.71 401.32 402.99 404.63 406.64 412.15 415.53 418.20 420.86 423.01 425.39 427.19 429.71 431.24 432.81 434.70 435.51 437.64 439.64 441.79 444.29 445.55 446.99 447.66 448.33 447.94 451.64 455.35 460.26 464.34 468.78 472.03 474.99 477.55 481.01 483.74 487.25 493.63 497.87 502.05 504.25 507.21 510.53 513.20 515.43 517.83 521.12 524.67 526.74 530.11 532.35 535.99 539.23 542.04 544.00 546.00 548.07 550.07 552.29 553.79 555.69 556.82 557.70 558.59 561.73 565.88 570.33 574.56 578.44 582.47 586.10 590.24 593.63 597.32 601.19 605.37 608.43 611.21 614.27 617.40 620.19 623.36 626.49 628.93 632.35 635.11 637.79 640.22 642.18 644.36 646.50 648.14 650.67 653.54 655.67 657.86 660.24 662.66 664.56 667.69 670.19 673.13 677.54 681.80 685.53 689.50 693.16 698.69 704.12 708.34 710.45 713.29 716.11 718.40 720.30 723.11 725.80 728.21 732.72 735.89 739.68 743.84 746.78 749.78 754.08 756.97 759.28 762.25 765.48 769.62 772.57 775.28 777.56 780.42 782.08 784.93 788.65 792.49 796.46 799.38 802.06 804.92 807.26 809.26 811.53 813.57 815.70 817.04 819.58 821.19 822.97 824.90 826.85 828.64 830.11 831.43 832.81 833.75 835.45 837.04 839.43 840.99 842.62 843.93 844.69 845.90 846.56 847.49 849.02 850.18 851.66 852.62 853.62 854.66 856.37 858.32 859.73 0.00 0.00 0.00
0.00 0.00 0.00 148.45 147.87 147.50 147.77 148.21 148.66 148.45 148.20 148.85 149.69 150.66 152.13 153.93 154.92 155.57 156.47 157.25 158.12 159.02 160.21 161.40 162.74 163.87 165.35 166.91 168.42 169.40 170.69 172.02 173.08 173.89 174.69 174.79 175.51 176.88 177.56 178.01 179.25 180.37 181.84 182.72 183.78 184.72 184.94 185.49 186.37 185.69 185.66 186.83 191.05 191.98 193.13 194.30 194.59 194.89 195.62 196.41 197.15 198.05 199.72 199.46 201.64 202.95 203.61 204.47 205.00 205.86 206.91 207.91 208.12 208.16 209.73 210.60 211.92 213.21 213.80 215.22 215.85 217.13 218.79 219.59 220.83 222.18 222.19 224.03 225.31 226.10 227.52 228.49 229.24 230.53 232.01 232.20 231.30 230.26 233.42 234.87 233.50 233.35 236.87 238.58 240.61 242.79 243.36 244.74 246.24 247.03 248.75 250.43 253.71 255.96 258.97 260.83 263.57 266.37 266.20 263.06 265.47 269.16 271.23 274.08 274.39 273.91 275.00 278.69 282.91 286.99 290.70 293.93 297.05 299.02 300.75 303.31 305.52 307.40 309.21 311.16 312.97 315.40 317.58 319.42 321.06 323.42 325.99 328.03 330.80 333.01 335.25 337.06 340.16 342.82 347.56 350.85 353.83 356.62 359.38 362.49 365.42 368.31 371.52 373.87 376.03 378.38 381.47 383.31 385.42 387.27 389.27 391.08 393.39 394.78 396.86 398.86 400.64 402.38 406.72 410.32 413.72 416.38 418.82 420.41 423.17 424.79 426.85 428.62 430.39 431.70 433.25 435.20 437.11 439.30 441.09 442.44 442.36 442.68 444.22 447.97 451.90 454.80 458.29 462.12 466.40 469.89 473.38 475.96 478.06 480.99 484.87 490.60 496.26 499.00 501.67 505.49 508.72 510.80 513.30 515.87 518.53 522.15 524.65 528.04 530.76 533.67 537.00 539.24 541.11 543.27 545.26 546.82 548.07 550.63 551.83 552.23 553.38 557.44 562.01 565.99 570.28 574.28 577.72 581.33 584.97 589.41 592.72 596.01 599.51 604.11 606.75 609.15 612.09 614.89 617.57 620.63 623.59 626.51 629.22 631.84 634.55 636.76 639.12 641.29 643.05 645.37 648.01 651.09 652.75 655.28 657.40 659.38 662.14 664.46 667.01 672.18 677.00 681.42 684.85 688.16 692.47 696.83 701.50 705.16 708.02 710.36 713.11 714.99 717.43 719.86 723.85 727.46 731.31 735.12 738.61 741.78 744.94 747.97 752.02 754.47 757.60 760.68 764.25 767.25 770.25 772.85 775.33 778.30 780.42 784.13 787.51 790.98 794.00 796.66 799.67 802.09 804.60 807.01 808.91 810.56 812.88 815.19 817.12 819.01 820.88 823.27 825.15 826.69 828.13 829.33 830.71 832.25 834.12 835.69 837.11 838.76 839.95 841.31 842.38 843.68 844.96 845.90 847.24 848.57 850.49 851.02 852.25 853.22 854.94 856.72 858.38 0.00 0.00 0.00
0.00 0.00 0.00 145.53 145.48 146.07 147.36 147.53 147.73 147.29 147.11 148.00 148.54 149.04 150.38 151.55 152.86 153.52 154.74 155.77 156.94 158.04 159.36 160.90 162.07 163.35 164.84 166.21 167.75 168.72 169.90 170.75 171.38 172.22 172.62 173.29 173.99 175.34 176.23 176.76 177.45 179.08 180.27 181.55 182.22 182.95 183.50 183.90 183.43 183.70 186.18 188.98 189.68 190.77 191.95 193.15 192.98 193.40 194.11 195.41 196.09 197.17 198.43 198.48 199.73 200.61 201.12 202.55 204.23 205.84 206.12 206.09 205.79 206.99 208.13 209.58 210.17 210.67 211.09 214.42 213.37 216.35 217.63 218.86 220.11 219.84 222.31 223.26 223.99 224.49 225.86 227.28 226.88 228.36 228.96 229.06 227.89 230.81 232.96 233.09 231.32 232.60 236.05 237.64 239.34 240.40 241.88 242.98 243.82 245.56 247.16 250.32 252.87 254.89 257.00 259.89 262.80 264.77 262.22 260.98 263.90 265.67 267.60 269.10 270.19 271.95 276.19 280.11 283.18 286.06 289.14 292.01 295.16 297.83 300.05 302.19 304.13 306.09 308.04 309.29 311.12 313.09 315.29 317.26 319.13 322.05 323.94 326.23 328.50 330.66 332.88 335.68 338.93 341.92 345.92 348.96 351.97 355.05 357.54 360.23 362.76 366.20 368.15 370.53 372.95 375.80 377.96 380.53 382.50 384.68 386.43 388.67 390.61 392.35 394.00 395.49 398.11 401.04 405.37 409.18 411.58 414.27 416.51 418.25 420.62 422.56 424.37 426.27 427.66 429.26 431.12 432.99 434.49 436.03 437.32 437.56 437.76 439.38 444.10 448.14 452.19 454.48 457.18 460.79 465.12 468.65 471.10 474.14 475.97 478.27 481.96 488.20 492.41 497.04 499.43 502.52 506.09 508.88 511.11 513.79 516.34 519.23 523.01 525.48 528.51 531.11 534.36 536.21 538.14 540.74 542.01 543.43 546.04 546.26 546.28 549.97 553.33 557.43 561.76 565.95 569.77 573.25 576.48 580.03 583.86 587.62 590.71 594.12 598.35 602.28 604.96 607.32 609.31 612.07 615.08 618.49 621.21 623.84 626.29 628.70 631.39 633.70 635.65 637.82 639.93 642.32 645.53 647.54 650.11 652.29 654.03 656.36 659.11 662.90 667.70 672.63 676.64 680.27 682.39 685.71 690.59 695.23 698.24 701.47 705.90 707.50 709.30 711.88 714.78 718.74 722.62 726.30 729.79 733.50 737.04 739.85 743.11 746.57 749.60 752.60 755.89 759.06 762.55 765.80 768.51 770.62 773.60 775.94 778.88 782.35 785.78 788.73 791.44 794.02 796.74 800.02 802.99 805.04 806.42 808.34 810.35 812.70 814.98 816.95 819.43 820.60 823.20 824.83 826.03 827.49 829.19 831.11 832.71 834.19 835.41 836.35 837.91 839.57 840.82 841.83 843.15 844.10 845.73 846.77 848.74 849.62 850.94 851.83 853.13 855.07 856.90 0.00 0.00 0.00
0.00 0.00 0.00 144.11 144.40 144.99 145.82 146.62 146.41 146.03 146.56 147.12 147.90 148.47 149.15 149.60 150.54 151.64 153.15 154.47 155.58 156.98 158.63 160.09 161.42 162.82 164.26 165.47 166.31 167.33 168.55 169.42 170.00 170.76 170.71 171.38 173.06 173.85 174.57 174.95 176.31 177.88 179.07 179.99 180.51 181.38 181.37 180.99 180.89 183.64 186.53 187.48 188.66 189.93 190.82 192.05 192.00 192.31 193.05 193.71 194.86 195.71 196.08 197.28 198.42 198.73 199.11 200.72 202.22 203.18 203.76 203.66 204.00 205.75 207.19 207.73 208.01 208.40 211.44 211.53 212.65 214.82 216.12 217.41 217.83 219.57 220.92 221.83 222.48 224.21 225.47 225.01 225.84 225.45 224.77 225.46 228.38 230.20 230.83 228.84 230.12 232.87 234.68 235.83 237.49 238.87 240.25 241.23 242.66 245.27 247.88 249.78 251.77 253.50 256.00 258.76 261.64 260.73 258.81 259.37 261.76 262.93 264.17 266.15 269.55 273.66 277.67 279.55 281.68 284.47 287.28 290.27 293.34 296.25 298.95 300.60 302.49 304.43 306.22 307.55 309.18 311.44 313.64 315.85 318.22 320.70 322.17 323.85 326.43 328.60 331.46 334.62 337.64 340.38 344.56 346.98 349.95 352.37 354.74 357.18 360.69 363.37 365.21 367.75 370.16 372.71 375.11 377.41 379.73 381.86 383.93 386.08 387.71 389.56 390.64 392.57 396.45 401.20 404.41 407.13 409.71 412.56 414.55 416.25 418.42 420.34 422.45 423.63 425.51 427.13 428.71 430.25 431.56 431.85 432.35 433.80 437.04 442.24 445.82 448.05 449.89 453.04 456.29 460.65 463.84 465.62 468.79 471.18 473.08 476.43 480.15 483.70 487.99 493.99 496.85 499.95 502.80 506.04 508.39 511.30 513.80 517.84 520.95 523.20 525.95 528.41 531.06 532.93 534.28 537.21 538.55 539.89 542.63 542.76 544.12 549.50 553.50 557.77 561.26 564.79 568.37 572.06 575.32 578.66 582.38 586.17 589.06 592.15 596.00 600.04 602.24 604.31 606.94 609.58 612.61 616.46 618.55 621.10 623.12 625.62 628.28 630.66 632.49 634.17 636.47 639.80 642.62 644.61 647.05 648.66 651.02 653.80 658.35 663.37 668.01 672.12 674.85 677.20 680.19 683.40 687.53 692.21 694.74 698.66 702.69 704.23 705.58 709.22 713.98 718.03 721.72 724.56 727.99 731.81 735.17 738.12 741.33 744.40 747.25 750.53 753.78 757.52 761.03 763.83 766.06 768.59 771.61 774.12 777.03 780.32 782.98 785.62 788.39 791.44 794.50 797.59 800.33 802.53 804.20 806.23 808.00 810.38 812.97 814.98 816.89 819.05 821.34 822.88 824.14 825.94 827.78 829.44 830.97 832.42 833.46 834.65 836.34 837.73 839.11 840.25 841.72 842.43 843.72 845.98 846.91 848.22 849.02 850.11 851.22 852.74 855.13 0.00 0.00 0.00
0.00 0.00 0.00 142.68 142.95 143.39 144.37 145.22 144.67 144.95 145.65 146.24 146.91 147.62 148.19 148.52 149.63 150.73 152.16 153.41 154.66 155.96 157.70 159.39 160.77 162.00 162.99 163.90 164.69 165.71 166.85 167.99 168.62 169.55 169.46 169.93 171.45 172.04 172.85 174.12 175.35 176.84 177.71 178.26 179.17 179.20 179.06 178.85 180.92 183.27 185.21 186.47 187.96 188.46 189.68 190.75 190.91 191.27 191.82 192.30 193.13 193.76 194.21 196.21 197.02 197.23 197.94 199.16 200.36 201.15 201.74 201.91 203.70 205.22 205.69 206.04 206.39 208.04 209.53 209.47 211.47 212.85 214.47 214.97 216.46 218.23 219.24 220.33 220.80 223.26 223.35 223.63 223.37 221.69 223.53 227.24 228.84 228.43 228.56 226.70 229.87 232.54 232.93 234.73 236.13 236.44 237.90 239.88 242.67 244.59 246.39 247.61 250.23 252.17 255.86 257.55 257.35 256.57 256.33 257.85 259.67 261.95 264.70 268.46 272.10 275.04 276.40 278.07 279.89 282.58 285.23 288.22 291.16 293.88 296.91 299.39 301.12 302.59 303.95 305.61 307.46 309.67 311.83 313.72 316.22 318.74 320.91 322.30 324.37 327.20 330.24 333.63 335.93 338.70 341.29 344.88 347.48 349.79 352.45 355.27 358.11 360.67 362.63 365.13 367.79 370.39 372.43 374.23 377.21 378.83 380.64 381.98 384.25 385.64 387.68 390.69 395.23 399.55 402.82 405.01 407.26 410.08 412.25 414.37 416.40 418.54 419.94 421.52 422.80 424.75 426.17 427.36 427.37 428.48 430.68 435.09 438.30 440.88 442.90 446.22 450.06 453.68 456.61 459.75 461.54 463.72 466.03 468.78 472.13 475.01 477.83 480.28 483.97 489.20 493.00 496.40 499.79 502.99 506.87 509.27 512.54 515.62 518.27 520.56 523.08 525.26 527.76 529.65 531.31 533.96 534.62 536.75 538.22 539.06 544.68 549.09 553.15 556.80 560.03 563.21 566.85 571.07 574.05 577.72 580.91 584.65 587.20 590.55 593.90 597.07 599.19 601.86 604.66 607.52 611.27 614.16 615.81 617.91 620.11 622.15 624.91 627.17 629.38 631.01 634.08 637.71 639.42 641.60 643.61 646.26 649.45 654.17 658.89 663.31 667.99 670.84 672.72 675.09 677.77 680.93 684.99 688.86 691.59 696.49 699.73 700.71 703.87 708.26 712.72 716.67 719.62 722.94 726.60 729.78 733.27 736.12 738.85 742.33 745.50 748.42 751.52 755.07 758.68 761.44 764.03 766.59 769.24 771.79 774.63 777.47 779.88 782.70 785.90 789.07 792.30 795.05 797.84 799.95 801.60 803.75 805.66 808.04 810.33 812.85 815.38 817.46 819.43 820.99 822.59 824.36 826.16 827.54 828.83 830.24 831.65 833.04 834.93 836.33 837.24 838.29 839.48 840.83 842.17 844.12 845.18 845.91 847.09 848.30 849.71 851.29 853.53 0.00 0.00 0.00
0.00 0.00 0.00 141.48 141.88 142.28 143.14 143.67 143.77 144.38 144.81 145.56 146.07 146.50 147.29 148.13 148.85 150.08 151.28 152.78 153.76 154.87 156.59 158.36 159.89 160.86 161.84 162.72 163.62 164.63 165.37 165.84 166.75 167.93 168.15 169.09 170.02 171.01 172.02 172.92 174.18 174.86 175.97 176.81 177.24 177.35 177.33 179.64 181.65 182.69 184.58 185.14 185.79 186.86 188.28 189.04 189.78 190.20 190.40 190.97 191.70 192.06 193.33 194.60 195.28 194.90 196.84 197.89 199.08 199.86 200.08 201.51 203.39 203.92 204.41 205.13 206.47 207.39 207.97 208.77 209.60 210.98 211.85 213.73 215.51 216.54 217.30 217.54 219.62 220.77 221.45 221.87 219.53 220.86 224.33 226.03 226.42 226.82 225.18 226.05 230.30 230.43 231.53 233.59 233.56 234.26 235.29 238.30 240.45 242.16 243.61 246.42 248.70 251.55 253.23 252.75 253.21 253.98 255.00 256.80 260.09 263.96 267.25 270.18 271.41 273.51 275.36 276.35 278.37 280.67 283.19 286.02 288.93 291.40 294.23 297.14 299.60 300.98 302.14 303.76 305.45 307.82 309.54 311.78 313.94 316.29 318.66 320.62 323.16 325.80 328.87 331.78 334.73 337.15 339.18 341.80 344.62 347.00 349.64 352.22 354.80 357.09 360.04 362.96 365.54 367.51 369.60 371.95 374.34 375.74 376.76 378.29 380.13 382.80 385.75 389.84 394.20 397.90 400.58 402.83 405.65 408.22 410.02 412.26 414.77 416.70 418.15 418.91 419.94 422.27 422.00 422.84 424.84 428.71 432.44 433.58 436.08 438.37 442.23 445.56 448.48 451.74 454.34 457.25 459.63 460.86 464.43 467.86 471.07 473.02 475.90 479.20 482.02 486.12 489.81 494.25 498.00 501.48 504.17 507.45 510.69 512.48 514.99 518.11 520.06 521.99 524.63 526.49 527.93 530.31 531.50 532.48 535.13 539.20 543.89 548.43 552.07 555.63 558.62 561.87 565.66 568.88 572.08 576.18 579.46 582.53 585.09 588.51 590.51 593.42 596.30 599.53 602.74 606.13 608.93 611.08 612.89 614.71 616.85 619.82 621.56 623.86 625.94 627.95 631.18 634.84 636.11 638.12 640.94 645.01 649.74 654.39 659.21 662.38 665.97 668.39 670.11 672.21 674.97 678.29 682.33 685.40 688.57 692.28 695.36 698.12 702.79 707.59 711.68 715.31 718.54 721.85 725.14 728.34 731.46 734.10 737.10 740.31 743.33 746.23 748.91 752.65 756.29 759.32 761.86 764.04 766.58 769.42 772.42 775.34 777.86 780.72 783.64 787.08 789.59 792.25 795.19 797.34 799.52 801.79 804.02 806.33 808.67 811.20 813.67 815.62 817.38 819.35 820.86 822.42 823.95 825.77 827.08 828.80 829.93 831.23 832.93 834.28 835.54 836.50 838.01 839.11 840.81 842.55 843.31 844.08 845.87 847.13 848.48 850.38 851.89 0.00 0.00 0.00
0.00 0.00 0.00 140.38 141.43 141.26 141.80 142.58 142.80 143.30 144.32 145.05 145.48 145.89 146.19 147.22 148.19 149.06 150.43 151.69 152.77 154.02 155.35 156.95 158.39 159.47 160.50 161.09 162.09 162.68 163.32 164.31 165.12 166.65 167.71 168.96 169.46 170.11 170.60 171.31 173.13 174.21 174.95 175.69 175.60 176.35 178.61 180.14 181.13 181.85 182.68 183.00 184.28 185.77 187.09 187.86 188.53 188.93 189.43 190.39 190.41 190.99 192.07 192.61 193.10 193.65 195.36 196.55 197.91 198.29 199.62 201.13 201.65 202.75 203.13 204.09 205.39 205.70 206.89 208.35 209.35 209.85 211.13 212.71 213.81 214.26 215.00 216.64 217.91 218.53 218.99 218.49 216.83 220.20 221.89 223.77 224.16 225.64 222.99 225.38 228.24 228.58 230.13 230.73 231.04 232.10 234.20 236.54 238.03 239.48 242.01 244.39 247.05 248.89 248.16 249.03 250.81 251.61 254.10 258.30 262.68 265.42 267.30 268.93 270.04 271.92 274.03 276.00 276.84 278.66 281.10 283.63 286.47 288.89 291.79 294.73 297.41 299.35 300.55 301.69 303.80 305.96 307.66 310.00 312.19 314.20 316.18 318.79 321.57 324.39 327.01 329.79 332.64 334.99 337.59 340.10 341.90 344.44 346.99 349.92 351.82 354.52 357.97 360.72 363.38 365.15 367.11 369.10 371.02 372.07 373.38 375.18 377.49 380.74 384.24 389.50 393.14 395.91 397.85 401.16 403.42 405.92 407.69 409.80 411.65 414.28 415.27 416.21 417.54 417.49 418.18 421.53 426.18 428.60 429.68 431.99 434.97 438.61 441.30 444.62 446.99 449.54 452.87 455.06 456.51 460.14 463.47 466.01 468.18 471.43 474.42 477.03 479.32 482.58 486.89 490.94 494.99 498.34 502.15 504.71 507.75 510.30 512.97 515.30 517.22 519.22 520.54 522.16 523.67 526.05 527.65 530.69 535.63 539.95 543.63 547.22 550.66 554.20 556.99 560.33 564.01 567.23 570.87 574.34 577.54 580.37 583.34 585.48 588.15 591.18 593.79 597.09 600.79 603.78 606.20 608.32 609.47 611.30 614.14 616.52 618.29 620.79 623.30 625.40 628.08 631.12 632.97 635.74 640.62 645.09 648.88 653.93 657.04 659.58 663.69 665.86 667.81 669.62 672.61 676.03 679.23 682.77 685.66 688.80 692.83 697.40 701.98 706.50 710.45 713.25 717.12 720.49 723.23 726.52 729.56 732.53 736.02 738.47 741.04 743.43 747.17 750.20 753.45 756.69 759.33 761.60 764.76 767.82 770.51 772.62 775.55 778.68 782.07 784.86 787.27 790.13 792.39 794.81 797.54 799.63 801.87 804.33 807.01 809.32 811.61 813.75 815.38 817.10 818.69 820.23 822.26 824.07 825.43 827.03 828.24 829.64 831.55 832.77 834.17 835.09 836.61 837.32 839.51 840.63 841.47 842.41 843.75 845.27 846.93 849.11 850.49 0.00 0.00 0.00
0.00 0.00 0.00 139.53 139.83 140.48 140.45 141.46 141.75 142.44 143.75 144.94 145.95 146.67 145.31 145.66 146.72 148.34 148.99 150.41 151.80 153.21 154.66 155.96 156.83 157.97 158.90 159.41 160.03 160.96 162.24 163.88 164.37 165.37 166.69 167.34 168.07 168.70 170.61 171.76 172.86 173.54 173.72 173.72 175.34 177.31 178.12 178.87 179.14 180.06 180.71 181.47 182.91 184.21 185.30 185.71 186.72 187.04 188.01 188.78 188.66 189.91 190.58 191.05 190.85 192.94 194.07 195.19 195.81 197.51 199.30 199.61 200.86 201.37 201.98 203.03 203.70 204.17 205.97 207.04 207.98 208.08 209.87 211.00 211.86 212.56 213.90 215.51 216.14 216.22 216.29 215.21 216.75 219.92 220.66 221.38 223.72 222.73 221.40 225.34 226.35 227.66 228.05 228.53 229.51 231.60 233.65 235.32 236.25 238.48 240.63 242.46 244.58 244.03 244.87 247.42 249.16 251.32 255.35 259.89 262.57 264.90 266.99 268.86 269.27 271.30 273.37 275.33 276.53 277.61 279.34 281.50 284.06 286.47 289.32 292.25 294.97 297.40 299.24 300.90 302.84 304.45 306.03 308.00 310.18 312.14 314.26 317.03 320.08 322.92 325.43 327.60 329.83 332.51 335.59 338.11 339.23 341.73 344.57 346.87 349.27 352.61 355.72 358.25 360.48 362.58 364.44 366.43 367.54 368.80 370.53 372.48 375.12 378.32 384.48 388.11 391.69 394.32 396.30 398.47 401.01 403.49 405.54 407.60 409.17 411.96 412.37 413.49 414.31 415.54 419.93 422.70 425.05 425.81 428.96 432.23 435.18 437.80 440.34 442.32 445.08 448.13 449.56 452.17 456.35 458.84 460.37 464.07 467.42 469.97 471.98 474.59 477.87 479.62 483.42 488.03 491.57 496.77 500.01 502.69 504.99 507.21 510.73 512.64 514.08 515.83 516.58 518.16 519.10 521.22 526.24 531.22 535.46 538.96 542.80 546.23 549.69 552.21 555.58 559.06 562.28 565.27 568.61 571.87 575.01 577.83 579.77 582.58 585.71 588.36 591.52 594.69 597.93 601.03 603.40 604.97 606.31 608.69 611.06 613.15 615.17 617.79 620.13 622.33 624.67 628.00 631.68 636.48 640.41 643.35 648.00 651.15 654.70 656.96 660.11 663.45 664.94 666.76 669.49 673.33 676.76 679.67 683.47 687.97 692.37 696.95 701.54 705.10 709.28 712.46 715.76 718.93 721.54 724.56 727.58 730.24 733.47 736.29 739.24 742.07 744.76 748.25 751.31 754.08 756.94 759.53 762.99 766.14 768.44 770.59 773.50 776.73 780.23 782.86 785.14 788.15 790.48 792.59 795.07 797.35 800.33 802.74 805.25 807.71 809.76 811.00 813.09 815.04 816.64 818.18 820.55 822.28 823.75 825.46 826.19 827.94 829.84 831.13 832.36 833.57 835.02 835.88 838.19 838.75 839.44 840.77 841.86 843.59 845.59 847.50 848.92 0.00 0.00 0.00
0.00 0.00 0.00 138.88 138.87 138.88 139.37 140.29 140.56 141.36 142.62 143.84 145.16 145.81 145.74 144.59 145.60 146.91 148.29 148.85 150.53 152.08 153.57 154.77 155.56 156.59 157.53 158.54 159.19 160.42 162.07 162.46 163.29 164.15 165.01 165.46 166.28 167.87 170.05 171.66 171.64 172.17 172.28 173.05 175.31 176.31 176.36 177.48 177.83 178.43 179.36 180.73 181.98 183.05 183.42 184.01 185.07 185.25 185.82 186.53 186.95 188.06 188.88 188.71 190.15 191.45 192.33 193.75 194.78 196.64 197.71 197.81 198.18 200.20 201.75 201.93 201.82 203.55 204.69 205.88 205.51 207.64 208.84 210.15 210.50 211.56 212.66 213.77 214.19 214.30 214.76 213.90 216.85 218.29 218.76 221.62 222.66 220.16 220.29 224.48 225.49 226.10 226.13 227.78 230.04 231.93 233.24 234.09 235.75 237.27 239.58 240.98 240.12 241.50 243.27 245.46 247.75 251.40 256.28 259.53 261.46 263.50 265.65 267.46 268.61 270.16 272.49 274.23 275.77 277.08 278.58 280.23 281.90 284.38 287.18 289.83 292.70 295.26 297.30 299.57 301.27 302.77 304.21 306.18 308.06 310.09 312.44 315.52 318.60 321.18 323.32 325.55 327.68 330.33 332.95 335.21 337.17 339.39 342.12 344.71 347.35 350.52 353.43 355.36 357.71 359.69 361.31 363.45 364.00 365.61 366.92 370.09 373.72 376.90 381.89 385.51 389.27 391.93 393.57 396.08 398.50 401.13 403.21 404.31 406.78 408.42 408.72 411.17 413.18 416.48 418.72 421.33 422.70 425.01 428.26 431.03 434.15 435.93 437.54 440.74 443.32 444.93 447.69 451.57 453.74 455.85 459.19 462.06 465.40 467.13 470.01 471.68 475.04 478.19 480.36 485.36 489.65 493.27 496.55 500.49 502.52 504.62 508.21 509.68 511.23 512.22 513.79 515.31 515.69 520.94 527.14 531.00 534.28 537.39 541.30 544.88 547.85 550.52 553.62 557.26 560.89 563.81 566.87 569.94 572.69 574.36 577.45 580.53 583.35 585.94 589.65 592.53 595.59 598.17 600.40 601.67 603.45 605.76 607.70 609.49 611.79 613.89 616.12 618.27 622.27 628.94 632.84 636.24 639.17 641.81 644.97 648.97 651.15 654.32 657.23 659.63 661.60 663.85 667.11 670.45 674.73 679.19 686.56 690.80 692.48 696.44 699.28 703.49 706.82 711.19 714.77 717.54 719.96 722.72 725.94 728.32 731.41 733.81 736.88 739.73 742.99 745.84 748.89 752.26 755.02 758.13 761.00 763.76 766.40 768.71 771.80 775.30 778.07 780.58 783.34 785.70 787.78 791.01 793.13 795.65 798.34 801.22 803.42 805.25 807.18 809.25 811.42 813.37 814.70 816.68 818.32 819.95 821.74 823.26 824.17 825.60 827.35 829.27 830.18 832.07 833.37 834.37 836.00 836.79 837.85 839.18 840.70 841.94 844.14 845.85 847.37 0.00 0.00 0.00
0.00 0.00 0.00 137.75 138.12 138.19 138.60 139.06 139.54 140.26 140.94 142.06 143.12 143.77 144.71 143.67 144.90 146.01 147.21 148.13 149.43 151.31 152.86 154.09 154.96 155.80 157.21 158.17 158.78 159.48 160.73 161.12 162.11 163.10 163.49 164.16 165.28 166.60 168.48 169.52 170.01 170.37 171.25 173.64 174.11 174.66 175.14 176.05 176.52 176.99 178.00 179.57 180.82 181.75 181.81 182.78 183.43 183.25 184.59 185.84 186.28 186.03 186.44 186.60 188.98 189.92 191.20 192.05 193.83 194.63 194.49 196.09 198.31 199.63 200.08 200.19 201.02 202.07 203.25 203.46 204.74 206.97 207.42 208.30 208.57 210.32 212.04 212.38 212.23 213.18 212.52 213.56 215.06 215.50 218.19 220.14 220.79 217.71 219.68 223.01 223.89 223.79 225.94 228.09 229.65 231.07 232.09 233.51 234.15 236.21 236.62 236.78 238.43 240.08 241.88 244.70 248.81 253.13 256.09 257.66 259.57 262.48 264.41 266.73 268.16 269.37 270.98 272.98 274.26 276.10 277.82 279.26 280.32 282.72 285.17 287.84 290.42 292.87 295.42 297.73 299.63 300.91 302.48 304.11 305.90 307.79 310.84 313.89 316.85 319.08 321.41 323.63 325.79 327.66 330.50 332.55 334.85 337.70 340.15 342.66 345.15 348.58 351.09 352.69 354.75 356.35 358.44 359.88 360.57 362.30 364.66 368.17 371.50 375.11 379.17 382.32 386.64 388.89 390.92 392.68 395.59 397.98 399.96 401.30 403.03 403.82 405.18 407.53 411.78 414.93 416.64 419.20 421.86 423.92 426.47 429.09 431.47 433.65 436.21 438.94 440.43 442.96 446.68 448.40 450.80 454.46 457.19 459.86 461.98 464.80 467.60 470.68 473.19 476.21 479.75 482.91 486.37 489.52 493.31 496.81 499.34 502.18 504.17 506.38 507.46 508.88 510.89 511.97 516.21 522.44 526.65 530.21 533.45 535.92 539.68 543.17 545.57 548.42 552.06 555.50 558.67 561.06 564.43 567.04 568.86 571.50 575.08 577.95 580.32 584.02 587.35 590.05 592.63 594.57 596.98 598.24 600.48 601.94 603.62 605.54 608.16 609.97 613.48 618.85 623.88 627.88 631.52 634.53 637.36 640.20 643.12 646.00 648.89 651.18 653.73 656.19 659.03 662.11 666.09 670.57 674.90 678.98 683.59 687.35 690.30 694.61 697.81 702.57 705.50 708.71 712.33 714.72 717.62 721.01 723.78 725.88 729.22 731.70 734.36 737.38 740.47 743.25 746.67 750.24 752.99 755.67 758.52 761.29 764.15 767.03 770.11 773.11 775.86 778.82 781.26 783.57 785.87 788.61 790.90 793.74 796.72 799.03 801.14 803.38 805.36 807.49 809.57 811.36 813.16 815.15 816.52 818.05 819.62 820.89 822.48 823.49 825.36 827.35 828.13 830.57 831.57 832.57 833.82 834.92 836.12 837.51 839.39 840.79 842.60 844.19 845.92 0.00 0.00 0.00
0.00 0.00 0.00 136.81 136.92 137.26 137.78 138.08 138.53 139.19 139.90 140.72 141.38 142.10 143.36 142.87 144.35 145.43 146.87 147.72 149.27 150.90 152.54 153.85 154.88 155.58 156.57 157.42 157.83 158.98 159.30 160.68 161.82 162.63 162.58 163.74 164.57 165.66 166.35 167.86 168.17 168.43 170.81 171.85 172.42 173.12 174.21 174.83 175.42 176.06 176.84 177.81 179.22 179.78 180.18 181.21 181.31 182.54 183.24 183.89 183.97 183.98 184.44 186.06 187.27 188.70 190.25 191.39 192.16 191.56 194.33 196.40 197.36 197.95 198.56 199.06 200.05 200.43 201.00 202.96 204.85 205.37 205.92 206.44 207.60 209.33 210.47 211.09 211.45 211.34 209.87 212.97 213.55 215.23 217.15 219.13 217.91 216.00 219.76 220.61 221.31 223.53 225.90 227.27 228.20 229.25 231.23 232.38 232.15 232.14 233.80 235.84 236.79 239.03 243.02 246.31 249.08 251.58 253.85 256.14 258.59 261.08 263.56 266.10 267.87 268.57 269.87 271.44 272.83 274.42 276.48 278.45 279.74 281.60 283.80 286.12 288.79 291.20 293.53 295.72 297.97 299.58 301.08 302.51 304.12 305.98 309.06 312.22 314.67 316.80 318.82 321.41 323.30 325.35 327.74 330.03 332.01 335.12 338.02 340.40 343.36 345.45 347.92 349.65 351.48 353.39 355.39 356.58 357.55 360.17 362.68 365.82 369.28 373.18 376.88 379.97 383.50 386.01 388.04 390.17 392.56 394.66 396.56 397.76 399.32 401.67 404.17 407.44 410.23 411.90 415.61 418.25 420.28 423.09 424.67 427.37 430.39 432.08 434.65 436.27 439.02 441.91 443.48 446.07 449.58 452.42 455.34 456.77 457.85 462.83 466.05 468.51 471.69 475.70 478.30 480.78 483.63 486.84 489.88 492.56 495.88 499.01 500.26 502.19 502.80 504.79 508.81 512.96 518.42 522.49 526.03 528.95 531.60 534.50 538.10 541.11 543.31 546.01 549.79 553.50 556.34 558.97 561.51 563.79 566.15 569.52 572.56 574.95 578.26 581.78 584.16 586.90 589.28 591.80 593.73 595.19 596.50 597.40 599.67 602.32 606.48 611.07 615.86 620.02 622.90 625.77 629.48 632.34 635.21 638.38 640.86 642.75 645.30 647.62 650.25 653.18 657.49 661.87 666.32 670.30 674.12 676.68 681.04 684.64 688.62 692.15 695.91 700.01 703.95 706.90 710.15 712.65 716.02 718.61 721.52 723.55 726.87 729.46 732.46 735.25 738.06 740.90 744.42 748.44 751.08 753.95 756.37 758.65 762.08 765.26 768.55 771.26 774.12 776.47 779.36 781.97 784.35 786.69 789.42 792.39 794.84 797.21 799.42 801.62 803.44 805.94 808.05 809.49 810.97 812.96 814.55 816.16 817.79 819.31 820.57 821.97 823.80 825.21 826.75 828.25 829.57 830.97 832.14 833.42 834.68 835.83 837.76 839.26 841.11 842.73 844.20 0.00 0.00 0.00
0.00 0.00 0.00 135.91 135.90 136.19 136.59 137.21 137.69 138.24 138.74 139.40 140.12 140.85 141.94 141.79 143.50 144.53 145.81 147.32 148.99 150.82 152.34 153.54 154.41 155.41 156.32 157.05 157.66 157.90 158.59 159.82 160.66 160.81 161.72 162.37 163.31 164.08 164.47 165.14 165.30 167.37 169.48 169.93 170.57 171.37 172.44 173.42 174.34 174.99 176.12 176.72 177.43 177.82 178.60 179.11 179.84 180.96 182.04 182.73 182.40 182.55 183.87 184.63 186.03 187.35 188.19 190.14 188.91 192.01 193.85 195.12 195.93 196.13 197.18 197.76 198.45 198.79 201.02 202.61 204.48 203.92 204.38 204.63 206.55 207.69 208.57 209.81 210.49 209.41 208.38 211.55 213.48 215.20 216.77 217.13 214.42 214.87 218.03 219.03 221.39 222.70 224.31 225.36 226.11 227.68 229.61 227.76 228.83 231.01 232.63 234.36 237.30 241.00 242.67 245.16 247.77 250.27 252.86 255.23 257.53 260.09 262.50 264.90 266.69 267.98 268.67 269.77 271.69 273.12 275.25 277.45 279.19 280.88 282.82 284.84 287.05 289.36 291.33 293.41 295.59 297.71 299.66 300.90 302.58 304.84 307.83 310.52 312.38 314.54 316.81 318.89 320.56 322.83 324.80 327.58 330.44 332.42 335.15 338.07 340.05 341.83 344.52 346.23 348.42 350.02 351.84 353.07 355.44 358.70 360.79 363.02 366.89 370.15 373.89 377.26 379.15 382.58 384.81 386.98 389.30 391.01 393.10 394.25 396.45 400.66 402.95 404.91 408.12 411.71 414.09 416.72 419.23 420.93 423.72 425.82 428.56 430.47 432.61 435.09 436.90 438.89 441.69 444.68 447.89 450.25 451.63 453.75 457.40 460.21 464.82 467.77 470.35 473.14 475.77 478.71 481.58 484.19 487.38 489.80 492.92 495.41 496.70 496.93 500.22 504.50 508.92 512.95 517.14 521.13 524.37 527.45 529.80 532.77 536.20 539.09 541.43 543.44 548.06 550.97 553.06 555.96 558.68 561.31 564.42 567.28 569.66 572.69 576.39 578.73 581.20 583.57 587.00 590.07 591.02 591.73 592.31 593.33 597.43 602.42 606.81 610.98 615.25 618.50 620.88 624.33 627.46 629.63 632.19 635.09 637.76 639.64 641.99 644.69 648.26 652.69 657.24 661.86 665.59 669.06 672.48 675.95 679.06 683.05 686.94 690.35 694.51 697.86 701.91 705.02 707.72 710.66 713.77 716.25 719.20 721.25 724.17 726.88 729.82 732.54 735.37 738.49 742.28 746.20 749.04 752.08 754.51 756.52 759.84 763.46 766.56 769.42 772.21 775.01 777.39 779.70 782.43 784.69 787.75 790.77 793.07 795.36 797.62 799.48 801.89 804.04 805.88 807.40 809.55 811.26 812.93 814.50 816.13 817.65 819.34 820.72 822.74 824.20 825.43 826.63 828.07 829.40 830.47 831.88 832.98 834.58 836.26 837.66 839.47 840.99 842.62 0.00 0.00 0.00
0.00 0.00 0.00 134.80 134.96 135.44 135.96 136.45 136.76 137.34 137.90 138.54 139.16 139.72 140.78 141.74 141.90 143.09 145.02 147.27 149.30 150.42 151.22 152.11 152.79 154.18 155.06 156.55 157.08 157.12 157.91 158.45 159.02 159.74 160.60 161.20 162.71 162.67 163.43 162.84 165.08 166.94 167.83 168.48 169.20 169.95 170.84 171.96 172.81 173.47 174.40 175.13 175.69 176.02 176.96 177.32 179.37 180.56 181.30 181.84 180.95 181.79 182.43 183.35 185.03 185.80 187.81 187.39 188.62 191.12 192.64 193.56 193.59 194.70 196.17 196.51 196.04 198.44 199.60 200.99 202.40 202.43 202.68 204.60 205.30 206.00 207.30 209.31 208.59 206.58 207.93 211.46 213.95 215.78 216.40 213.96 212.11 213.38 216.07 219.17 220.62 222.00 223.65 224.43 224.89 226.23 226.31 225.33 227.22 228.69 231.04 235.24 238.17 240.11 241.74 243.70 246.11 249.16 251.50 253.67 255.85 258.28 260.56 263.07 265.16 266.88 268.14 269.05 270.28 272.14 273.92 275.91 277.45 279.35 281.23 283.08 285.23 287.29 289.48 291.27 293.16 295.27 297.52 299.10 301.05 303.43 306.04 308.18 310.28 311.98 314.03 316.72 319.26 321.06 322.91 325.95 328.71 330.45 332.82 335.22 337.07 339.05 341.17 343.31 345.29 347.33 348.84 350.72 354.15 356.38 358.34 360.22 363.86 367.39 371.42 374.54 376.41 378.69 381.25 383.60 385.86 388.36 390.16 391.33 395.68 398.15 401.86 404.96 407.45 409.88 412.42 414.93 416.92 419.35 422.22 424.56 426.96 428.63 431.71 433.41 434.87 437.05 440.21 443.53 445.62 446.57 449.65 452.86 455.61 459.21 462.41 465.02 468.24 470.94 473.72 476.51 479.32 482.31 483.38 487.50 490.24 491.64 493.30 495.47 501.14 505.35 508.40 511.46 515.41 519.00 522.27 525.47 528.12 531.46 534.78 537.36 539.66 541.97 545.13 547.81 550.26 553.15 556.23 559.05 561.84 564.14 567.53 570.01 573.62 575.87 578.32 580.59 584.56 585.78 587.42 587.83 589.19 592.84 597.48 602.02 605.65 608.64 612.94 615.90 618.50 621.76 624.04 626.75 629.00 631.74 634.45 636.24 639.20 643.21 647.32 651.75 655.45 659.65 663.27 666.85 670.25 673.29 677.37 681.47 685.27 689.39 693.18 696.05 699.62 702.41 705.48 707.91 710.41 712.90 716.70 717.81 720.59 724.27 727.45 730.24 733.15 736.78 740.52 743.74 746.43 749.48 752.43 755.43 758.46 761.49 764.14 766.72 770.07 772.56 775.00 777.55 780.14 783.10 786.42 788.68 791.27 793.57 795.67 797.81 800.23 802.09 804.03 805.85 807.81 809.81 811.53 813.16 814.87 816.44 818.03 819.56 821.31 822.93 823.88 824.90 826.25 827.83 829.05 830.69 831.97 833.71 834.92 836.36 837.91 839.44 841.17 0.00 0.00 0.00
0.00 0.00 0.00 134.41 134.27 134.38 135.27 136.01 136.69 136.67 137.38 138.00 138.53 139.13 140.15 140.80 141.91 142.16 144.42 147.33 148.76 149.13 149.45 150.22 151.43 152.75 154.20 155.81 155.90 155.56 156.77 157.22 157.66 158.74 159.40 160.55 161.27 161.38 161.05 162.26 164.42 165.15 165.96 166.90 167.69 168.79 169.56 170.16 170.94 171.76 172.32 173.14 174.35 175.31 175.87 176.72 178.16 179.97 180.12 180.05 180.09 180.80 180.99 182.33 182.90 184.99 185.59 185.34 188.25 189.60 190.86 191.42 191.71 193.02 194.60 194.28 196.04 197.51 197.71 198.96 199.66 199.85 202.04 203.40 203.67 205.09 206.54 206.34 205.00 205.29 209.00 211.31 214.28 215.60 213.86 211.11 211.01 213.69 216.82 218.44 219.58 220.99 222.13 223.06 224.24 224.69 223.51 224.15 226.06 228.34 230.95 234.75 236.13 238.46 240.76 242.39 244.44 247.27 249.35 251.74 254.09 256.39 258.27 260.95 263.44 265.56 267.42 268.44 269.41 270.54 272.57 274.29 275.61 277.35 279.18 281.32 283.36 285.49 287.35 289.33 290.98 292.82 294.97 297.28 299.45 301.84 304.00 305.77 307.80 309.64 312.02 314.55 316.66 318.84 321.19 323.69 325.76 327.95 330.20 332.11 334.34 335.84 338.25 340.48 343.10 344.60 346.73 349.31 352.13 353.87 356.80 358.23 361.66 365.24 368.46 371.13 373.42 375.07 375.98 379.02 383.23 386.16 388.18 390.40 392.79 396.51 399.56 402.89 405.37 407.90 409.61 412.49 415.85 418.92 421.56 423.12 425.72 428.23 429.52 431.36 433.87 436.25 439.80 441.90 442.07 445.24 447.64 451.56 454.98 457.56 460.12 462.92 465.95 468.73 471.72 474.51 476.93 478.33 478.52 481.46 484.51 488.38 492.83 497.00 501.01 504.07 506.65 509.68 513.95 517.51 520.40 523.18 526.33 529.73 532.71 535.15 537.60 539.07 541.41 544.39 547.03 550.09 553.47 556.72 559.07 561.42 564.89 568.03 570.65 572.96 575.13 577.68 580.70 581.83 584.02 585.20 589.05 593.32 596.79 600.60 603.40 606.84 610.36 612.88 616.38 618.97 620.91 623.22 625.89 628.55 630.77 634.12 638.24 642.28 646.23 650.08 653.92 657.64 661.39 664.61 668.49 672.10 675.85 680.14 684.37 688.96 691.65 694.22 696.95 699.42 702.43 704.51 706.90 709.65 712.26 715.10 718.53 722.09 725.36 728.12 731.49 735.04 738.94 741.60 744.68 747.23 750.41 754.05 756.74 759.40 762.26 764.77 767.67 770.19 772.40 775.21 778.09 781.52 784.52 787.20 789.33 791.51 793.72 796.11 798.13 800.24 802.18 803.91 806.06 807.80 809.97 811.61 813.18 814.94 816.33 817.52 819.85 821.36 822.27 823.32 824.78 826.28 827.89 829.39 830.61 832.21 833.34 834.93 836.30 837.69 839.59 0.00 0.00 0.00
0.00 0.00 0.00 133.27 133.81 133.85 134.27 135.04 135.82 136.32 136.74 137.12 137.67 138.61 139.31 140.66 141.99 142.00 144.66 147.03 147.12 147.40 148.33 149.21 150.52 151.76 153.45 154.63 154.31 154.51 155.70 156.18 157.39 157.38 158.24 159.70 159.31 159.47 159.52 161.33 162.58 162.83 163.78 164.91 165.87 166.51 167.31 168.38 169.38 170.42 171.27 172.50 173.40 174.50 175.36 175.85 177.10 178.67 179.04 178.87 178.30 179.01 180.24 180.94 181.82 183.21 182.26 185.36 187.19 188.07 188.78 189.08 190.30 191.86 192.94 193.05 195.28 195.97 196.40 197.52 197.16 198.98 200.57 201.22 202.48 204.04 203.33 202.10 202.94 206.74 209.33 210.46 212.57 213.68 211.41 208.93 210.07 213.25 216.22 217.33 218.15 219.85 221.08 222.07 223.39 222.25 221.75 223.67 226.02 228.49 231.61 232.93 234.72 237.42 239.53 241.09 242.91 245.49 247.71 249.76 252.43 254.43 256.70 259.02 261.41 263.94 265.91 267.37 268.53 269.88 271.38 272.74 274.08 275.66 277.17 279.28 281.51 283.60 285.68 287.29 288.93 290.68 293.58 295.28 297.68 299.73 301.73 303.56 305.35 307.84 310.17 312.17 314.61 316.81 318.97 320.82 323.16 325.15 327.75 329.61 330.83 332.75 336.17 338.66 339.74 341.60 344.89 346.98 349.39 351.84 354.36 356.56 359.38 362.58 365.21 367.88 369.44 369.91 370.12 373.28 378.58 384.74 385.52 388.77 391.44 394.81 397.55 399.47 403.36 406.05 409.19 412.14 414.91 417.45 419.68 423.30 425.09 426.09 427.81 430.73 433.92 437.41 438.58 437.99 440.06 443.64 447.47 450.23 452.83 455.72 457.69 460.70 463.72 466.57 469.22 471.88 474.01 473.93 473.76 474.85 480.10 484.85 491.23 495.07 499.25 502.10 504.17 508.31 512.67 515.73 518.45 521.14 524.06 527.82 530.47 532.71 534.72 536.52 539.66 542.22 545.39 548.65 551.55 554.43 556.53 559.34 562.91 565.59 568.31 570.37 572.02 574.42 576.72 577.79 580.72 584.48 589.02 591.88 595.30 598.65 601.52 604.63 607.38 609.76 612.91 615.65 617.86 620.19 622.78 625.07 628.78 633.17 637.32 641.16 645.08 648.76 652.11 655.59 659.58 663.30 667.40 671.35 675.64 679.63 683.72 686.81 689.78 691.79 693.55 696.43 699.01 700.84 704.04 707.31 710.28 713.33 716.81 719.94 723.19 726.65 730.49 733.75 736.78 739.47 743.16 745.30 748.80 751.84 754.90 757.40 759.83 762.63 765.06 767.46 769.98 772.60 775.71 778.98 782.25 784.55 786.58 789.31 791.77 794.21 796.50 798.33 800.39 802.23 804.11 806.22 808.06 809.69 811.53 812.67 814.39 816.06 818.11 819.66 820.61 821.78 823.30 825.00 826.24 827.63 829.04 830.59 831.70 833.12 834.42 836.28 837.91 0.00 0.00 0.00
0.00 0.00 0.00 132.01 132.93 133.31 134.05 134.38 134.94 135.45 135.81 136.24 136.85 137.80 138.63 139.59 141.64 143.58 145.09 145.26 145.75 146.69 147.39 148.17 149.05 150.34 151.57 152.46 152.17 154.32 154.72 155.47 156.04 156.37 157.39 158.15 157.55 156.64 158.16 160.20 160.73 160.85 161.93 162.76 163.85 164.38 165.59 166.67 168.02 169.05 170.34 171.62 171.92 172.44 173.49 174.65 175.88 176.69 177.88 177.33 177.55 178.62 179.66 179.52 180.69 180.28 182.31 184.09 185.48 186.35 187.38 187.42 188.90 190.51 190.92 192.83 193.68 193.93 194.79 194.81 196.15 198.38 198.36 199.25 200.99 201.90 199.94 200.71 204.48 206.97 207.38 208.44 209.64 210.82 209.02 207.30 209.39 212.58 214.14 215.73 216.65 217.64 219.63 220.70 220.12 219.35 220.39 223.00 225.38 227.94 229.20 231.13 233.60 235.65 237.70 239.59 241.77 243.83 245.98 248.18 250.69 252.97 255.14 256.94 259.45 262.06 264.32 266.12 267.53 268.86 269.74 271.18 272.70 274.06 275.71 277.56 279.45 281.42 283.44 285.32 286.70 288.62 291.10 293.23 295.38 297.23 299.36 301.08 303.12 305.66 307.67 310.19 312.61 315.04 316.94 318.68 320.00 322.65 324.70 325.83 328.32 330.45 333.11 335.12 337.12 339.62 341.95 344.14 346.95 349.89 352.28 354.40 356.98 358.89 361.60 363.60 363.71 364.58 365.99 370.05 372.97 378.30 384.70 387.03 389.55 391.88 394.61 398.85 402.47 406.11 408.58 411.16 413.39 416.03 419.19 421.31 422.51 424.41 427.51 430.09 432.64 434.24 434.09 436.37 440.39 444.23 446.56 448.40 451.26 453.51 455.62 458.49 461.56 464.13 466.68 469.13 470.19 470.30 470.97 472.38 474.84 484.02 489.47 492.85 496.44 499.24 502.17 505.65 510.01 513.58 516.05 518.88 521.68 525.39 527.90 530.26 532.41 534.18 537.16 541.10 543.51 546.06 549.00 551.34 554.22 557.29 560.15 563.04 565.50 567.51 569.07 570.53 572.53 575.04 579.69 584.15 587.15 590.08 593.16 596.78 599.21 602.64 605.04 607.13 609.59 612.43 614.92 617.31 619.80 623.89 627.83 631.52 635.54 639.47 643.36 647.09 650.62 655.05 659.26 663.48 667.34 671.14 675.54 678.41 681.26 684.43 686.88 688.52 690.49 693.45 695.63 698.04 700.93 704.50 707.82 711.47 715.29 718.86 721.74 725.04 729.13 732.42 734.57 737.32 740.88 743.21 746.39 749.75 752.71 754.90 757.54 760.22 762.59 764.87 767.19 769.83 773.29 776.67 779.62 781.92 784.80 787.46 790.07 792.45 794.38 796.65 798.58 800.23 801.84 803.94 805.87 807.77 809.28 810.97 812.41 813.91 816.22 817.83 818.81 820.27 821.68 822.84 824.43 825.66 827.33 828.81 830.05 831.28 832.95 834.59 836.24 0.00 0.00 0.00
0.00 0.00 0.00 131.47 131.79 132.77 133.07 134.04 134.38 134.73 134.90 135.15 135.84 136.55 138.35 138.32 140.37 142.10 143.40 144.08 144.76 145.63 146.61 147.12 147.70 148.73 150.09 150.60 150.43 152.52 153.29 154.07 155.15 155.74 156.46 156.12 154.85 155.49 158.26 158.72 159.06 159.83 160.71 161.59 162.18 162.91 164.18 165.35 166.64 167.43 168.75 169.79 169.82 171.61 172.14 173.07 174.01 174.77 175.55 176.01 177.27 178.09 179.02 178.68 178.96 179.08 180.90 183.02 184.07 184.87 185.53 185.54 187.79 189.34 190.42 191.37 191.63 192.46 192.37 193.97 196.41 196.89 197.48 198.38 199.42 198.67 198.28 201.94 203.96 204.99 205.40 206.33 206.92 207.52 206.17 206.75 209.36 211.68 212.58 213.69 215.17 216.29 217.52 217.87 216.37 217.41 219.79 222.79 224.83 225.16 227.20 229.40 231.84 233.96 235.49 237.72 239.92 242.22 244.52 246.57 249.03 251.26 253.20 255.20 257.64 259.93 262.30 264.34 266.31 267.61 268.41 269.31 270.89 272.38 274.23 275.84 277.27 279.19 281.33 283.05 284.93 286.89 289.11 291.14 292.87 294.77 296.84 298.75 301.10 303.08 305.88 308.34 310.15 312.44 314.56 316.06 317.46 319.27 321.32 323.95 326.76 328.43 329.61 331.76 335.04 336.95 338.74 341.42 345.22 348.12 349.61 351.86 353.68 355.88 358.26 358.68 359.42 360.64 363.41 368.17 370.17 376.18 383.43 385.67 387.93 391.52 395.00 398.31 402.32 404.28 408.07 409.50 411.99 414.93 416.98 418.65 421.92 424.68 427.21 428.68 430.06 430.01 432.67 437.28 439.75 442.01 444.47 446.41 448.59 451.12 453.74 456.56 459.37 461.93 464.44 465.03 465.10 465.51 469.81 472.71 477.89 482.52 487.03 490.72 493.99 497.08 500.44 503.84 507.83 510.84 514.12 515.95 519.84 522.98 525.55 527.97 530.20 532.32 534.36 537.70 541.24 543.63 545.82 549.14 552.48 554.95 557.13 560.16 561.96 563.68 565.25 567.35 570.72 575.34 579.55 582.16 585.39 588.22 591.21 594.06 596.59 599.45 601.95 604.30 606.48 609.33 611.86 615.07 618.71 622.73 626.57 630.56 634.24 638.23 642.17 646.01 649.32 654.75 657.88 661.94 666.22 669.88 673.23 675.97 678.71 682.19 683.83 685.07 687.29 690.11 692.51 695.02 698.52 702.16 705.94 709.95 714.00 716.93 719.88 723.94 726.48 729.65 732.38 735.38 738.37 741.47 744.60 747.56 750.24 752.69 755.54 758.07 759.97 762.11 764.61 767.16 771.19 774.51 777.27 780.16 782.99 785.63 788.22 790.48 792.43 794.25 796.29 798.11 800.06 802.09 803.69 805.68 807.25 808.90 810.28 811.36 814.26 815.81 816.97 818.18 819.73 820.82 822.11 823.57 825.43 826.86 828.25 829.73 831.46 833.24 834.81 0.00 0.00 0.00
0.00 0.00 0.00 130.82 131.48 131.71 132.08 133.15 133.52 134.12 134.07 134.34 134.67 135.97 136.40 137.87 138.19 140.69 141.83 142.94 143.34 144.39 145.69 146.66 147.61 148.07 148.13 148.49 150.27 151.83 152.01 152.69 153.38 154.48 155.40 154.50 154.02 156.02 157.55 157.82 158.56 159.75 160.91 161.80 162.47 163.44 164.28 165.02 165.46 167.01 167.88 168.85 169.61 170.16 170.95 171.97 172.79 173.69 174.14 175.48 176.72 177.18 177.59 177.33 177.31 179.48 179.72 181.65 182.80 183.21 183.58 185.69 187.53 187.98 189.28 190.19 191.05 190.41 191.26 193.18 194.60 194.80 196.43 197.61 197.79 195.87 198.25 200.83 201.50 202.15 202.94 204.00 204.89 205.48 204.28 205.62 209.47 210.72 211.52 212.84 213.87 215.44 216.21 214.46 216.14 216.93 220.07 222.09 222.69 223.70 225.56 227.87 230.22 232.25 234.33 236.18 238.61 240.66 242.88 245.01 247.61 249.60 251.64 253.41 255.54 258.08 260.54 262.56 264.49 266.15 267.42 268.47 269.41 270.40 272.63 274.57 275.75 277.30 278.99 280.63 282.96 285.15 286.84 288.75 291.15 292.72 294.61 296.75 298.52 301.19 303.30 305.50 307.77 309.77 311.76 313.08 315.13 317.31 319.64 321.79 323.94 325.14 327.01 330.13 332.21 334.43 336.63 339.95 342.75 344.75 346.63 348.68 350.77 352.46 354.30 355.26 355.93 358.25 362.58 367.41 369.73 374.41 381.34 383.71 386.68 389.86 392.44 395.47 399.49 403.32 406.08 407.97 409.54 412.61 414.73 418.49 421.48 423.99 425.40 426.18 426.29 429.38 433.33 435.64 437.60 440.22 442.48 444.00 446.44 449.35 452.00 454.99 457.23 459.34 459.96 461.55 463.04 465.88 469.86 473.63 477.82 481.47 485.58 488.18 491.83 494.99 498.28 501.51 505.04 508.23 510.62 514.85 518.07 520.38 522.91 525.36 528.07 530.22 532.19 534.98 537.55 540.41 544.33 547.43 550.25 552.28 554.41 556.73 557.25 559.91 563.11 567.53 571.69 574.78 577.17 579.81 582.91 585.94 588.71 591.68 593.85 596.39 599.32 601.20 603.52 606.14 610.02 614.16 618.15 622.20 626.35 630.00 634.11 637.88 641.84 645.24 649.20 652.78 656.16 660.17 663.70 667.40 670.55 673.34 675.89 678.82 680.28 681.57 684.38 686.91 689.94 693.20 696.43 699.81 704.34 708.07 712.05 715.06 717.28 721.41 723.67 727.70 730.22 733.32 736.45 739.37 741.79 744.51 748.11 750.68 753.12 755.68 757.79 759.53 762.75 766.38 769.90 772.35 775.15 778.38 780.90 783.66 786.42 788.39 790.04 792.62 794.26 796.32 798.16 800.10 801.84 803.82 805.61 806.82 807.84 809.24 812.15 813.59 815.00 816.42 817.29 818.54 820.02 821.53 823.50 824.84 826.55 828.18 830.08 831.62 833.05 0.00 0.00 0.00
0.00 0.00 0.00 129.46 130.32 131.42 131.59 132.25 132.72 133.12 133.39 133.71 133.93 134.45 135.12 136.24 137.06 138.37 140.35 140.98 141.74 143.17 144.58 146.06 146.59 146.03 147.03 148.64 149.50 150.68 150.99 151.37 152.22 153.07 154.04 152.05 154.15 155.95 156.41 157.33 158.35 159.60 160.65 161.39 162.20 163.17 163.91 164.09 165.32 166.50 167.71 168.39 169.23 169.94 170.73 171.34 172.17 172.57 173.51 175.00 175.71 176.36 176.47 175.79 177.46 178.73 179.46 180.71 181.32 181.49 183.48 184.56 185.61 186.38 188.21 188.63 189.02 188.61 190.22 191.32 192.28 193.59 195.32 195.89 195.05 195.64 197.22 198.65 198.97 199.80 201.05 202.27 203.38 203.04 203.39 205.73 209.00 209.61 211.34 212.40 213.83 214.57 213.18 212.81 214.28 217.64 219.61 220.71 221.54 223.08 224.93 226.59 228.84 231.38 233.04 235.04 237.24 239.32 241.20 243.19 245.86 248.00 249.91 251.40 253.47 255.65 258.39 260.65 262.65 264.35 266.00 267.61 268.39 269.30 271.21 273.08 274.61 275.89 277.04 278.92 280.85 283.00 284.64 286.87 288.97 290.72 292.61 294.55 296.82 299.24 301.10 303.15 305.38 307.45 309.15 311.12 312.95 314.99 317.22 319.29 320.84 322.16 325.48 327.86 330.04 332.34 334.97 337.13 339.25 341.60 343.53 345.42 347.37 349.50 351.02 351.14 352.30 357.71 361.72 364.97 368.82 372.71 377.62 381.82 385.08 387.09 390.17 393.60 396.16 399.52 402.84 404.00 408.43 410.95 414.59 418.18 419.97 421.58 421.80 423.46 427.19 429.79 431.66 432.64 435.26 438.12 439.85 442.24 444.78 447.40 450.08 453.00 454.43 454.04 453.31 457.03 463.09 467.05 470.29 473.54 475.84 479.97 482.74 486.25 489.45 492.62 496.02 499.55 502.08 505.90 509.23 511.71 514.66 518.03 520.13 522.39 525.43 527.62 529.49 532.42 535.80 538.74 542.14 544.81 547.01 549.41 551.07 552.17 554.38 557.53 562.16 566.34 569.85 572.56 574.96 577.66 580.73 583.84 586.20 589.01 591.21 593.78 596.18 598.21 601.76 605.76 610.30 614.02 618.21 622.09 625.64 629.52 633.28 637.11 640.59 644.76 648.19 651.25 654.36 658.54 661.64 665.32 667.87 670.22 672.98 675.71 677.16 679.08 681.36 684.58 687.85 691.18 694.94 698.17 701.56 704.61 708.34 711.51 714.52 718.06 721.09 725.02 728.04 731.83 734.22 736.95 739.54 742.37 745.62 748.22 750.73 753.28 755.19 757.24 761.11 764.78 767.63 770.04 773.03 776.21 778.85 781.73 784.19 785.66 788.06 790.22 792.36 794.48 796.54 798.46 799.99 801.71 803.59 805.06 806.03 807.38 810.09 811.18 812.30 813.70 814.95 816.57 818.34 819.94 821.22 822.94 824.90 826.57 828.01 829.40 831.20 0.00 0.00 0.00
0.00 0.00 0.00 128.75 129.26 130.16 130.89 131.80 132.13 132.32 132.62 133.15 132.97 133.86 134.30 135.11 136.12 136.23 138.51 139.50 140.60 141.81 142.97 143.95 144.47 144.69 146.47 148.01 148.08 149.28 149.94 150.40 151.36 152.61 152.24 151.00 153.93 154.85 155.72 156.65 157.87 158.89 159.99 160.82 161.42 161.85 161.88 163.54 164.42 165.62 166.66 167.37 168.26 169.36 170.46 170.76 170.68 171.53 173.24 174.07 175.00 175.21 175.32 175.04 176.63 177.56 178.57 179.98 180.01 181.08 181.86 183.20 183.86 185.37 186.07 186.53 186.35 187.18 188.44 189.20 190.90 192.99 193.70 193.44 193.25 195.99 196.71 197.44 198.22 198.83 199.84 200.73 200.60 201.47 203.02 206.82 207.79 208.89 210.44 211.63 212.78 211.66 211.10 211.73 214.79 217.34 218.48 218.86 219.93 222.04 224.16 226.08 227.98 229.73 231.32 233.52 235.76 238.09 239.97 241.64 243.99 246.10 247.81 249.61 251.43 253.51 255.87 258.45 260.70 262.45 264.26 265.65 266.26 267.72 269.78 271.66 273.47 275.15 276.60 277.98 279.09 280.95 283.01 284.93 287.17 289.06 290.96 292.86 294.76 296.86 298.96 300.83 303.20 305.19 307.15 308.98 310.70 313.15 315.31 317.43 319.18 321.18 323.56 325.59 327.60 330.07 332.23 334.42 336.37 338.54 340.97 342.47 344.53 346.71 347.09 349.22 351.95 356.22 360.69 364.35 366.99 371.46 375.50 379.43 382.10 385.30 388.58 391.19 393.64 396.56 399.68 403.34 407.54 410.70 413.27 414.45 415.84 418.07 420.98 424.20 427.16 427.98 429.06 431.32 434.04 435.99 438.55 440.99 443.70 446.41 449.15 449.89 449.52 449.06 452.07 457.28 463.01 466.36 468.90 471.46 474.32 477.74 479.88 484.00 487.06 490.08 493.56 496.36 500.48 504.23 506.27 508.91 512.65 515.85 517.83 520.36 522.72 524.69 526.96 530.02 533.43 537.13 539.99 541.80 543.90 546.23 546.99 548.52 552.74 557.17 561.43 564.68 567.42 570.44 572.70 575.56 578.59 581.21 583.30 585.76 588.11 590.36 593.44 597.61 601.77 606.17 610.30 614.25 618.03 622.16 625.77 629.64 633.25 637.02 639.98 643.54 646.82 650.43 653.10 656.20 660.11 662.74 665.48 667.50 670.11 672.60 674.03 676.29 678.53 681.91 685.34 690.29 692.96 695.90 698.57 701.47 704.44 708.43 711.25 714.57 717.93 722.36 726.50 729.70 732.31 735.24 737.77 740.88 743.71 746.03 748.25 749.98 752.86 755.61 759.35 762.66 765.43 767.49 770.35 773.59 776.63 779.23 780.88 783.06 785.48 787.70 790.41 792.74 794.55 796.58 797.95 799.83 801.83 802.99 804.17 805.80 807.40 808.44 810.15 812.09 813.32 814.68 816.52 817.92 819.17 821.28 822.84 824.41 826.25 828.10 829.66 0.00 0.00 0.00
0.00 0.00 0.00 128.11 128.58 129.37 130.06 130.48 131.17 131.96 132.19 132.47 132.19 133.54 133.82 134.41 135.09 135.72 135.88 138.27 139.76 140.18 141.02 142.24 142.37 144.22 145.63 146.53 147.25 148.20 149.02 149.77 150.38 151.49 150.55 150.34 153.02 153.70 154.74 156.14 157.15 157.94 159.25 159.66 159.98 160.12 161.54 162.39 163.33 164.12 165.53 166.80 167.62 168.17 169.26 169.78 170.07 171.23 172.29 173.15 174.08 174.46 173.88 175.02 176.16 176.98 177.28 178.74 179.40 179.74 180.49 181.62 182.49 183.44 184.14 184.50 185.18 186.68 187.16 188.15 190.25 191.73 190.56 190.68 193.50 195.45 196.41 196.96 198.00 197.95 199.33 197.56 197.93 200.30 203.44 206.14 206.60 207.71 209.24 210.50 209.86 208.57 209.61 212.77 215.36 216.12 216.94 217.59 218.76 221.01 223.30 225.28 226.58 228.05 229.61 231.71 233.83 236.45 238.52 240.44 242.37 244.11 245.84 247.59 249.46 251.56 253.67 256.01 258.47 260.58 262.45 264.29 265.42 266.75 268.07 269.77 271.87 273.75 275.56 277.05 278.23 279.30 280.88 283.25 285.62 287.30 288.98 290.64 292.70 294.57 296.65 298.76 301.05 303.44 305.39 307.40 309.61 311.47 313.60 315.57 317.64 319.72 321.55 323.38 325.44 327.42 329.56 331.92 333.56 335.58 337.68 339.13 342.82 344.25 346.07 349.61 352.51 356.01 359.64 362.88 366.85 370.43 373.85 376.70 379.72 383.43 385.61 388.67 391.56 393.67 397.46 402.77 406.73 408.06 411.11 413.27 415.60 418.75 421.19 423.51 425.32 425.66 427.62 429.72 432.01 434.62 437.05 439.78 443.08 445.03 444.80 444.32 445.72 449.17 453.73 458.42 461.49 464.39 467.14 469.61 472.51 475.18 478.08 481.11 484.00 487.24 491.15 494.48 498.14 502.02 504.53 507.21 510.60 513.54 515.85 518.60 520.02 521.90 525.05 528.07 531.32 535.34 537.08 539.50 540.17 542.26 544.39 548.51 552.56 555.87 559.71 562.60 565.48 568.11 570.33 572.73 575.49 577.80 579.59 581.64 585.10 589.51 593.83 598.03 601.89 606.13 609.57 613.89 618.01 621.45 624.36 628.65 633.55 636.55 638.71 642.13 645.39 648.68 651.87 655.12 657.66 660.12 662.90 664.67 667.14 669.33 670.64 673.44 676.28 679.66 684.09 687.89 690.22 692.81 695.61 698.25 701.30 705.67 708.24 712.12 717.10 721.06 724.74 727.93 730.71 733.16 736.17 738.86 741.41 743.72 745.48 748.03 751.01 753.66 756.69 759.65 762.61 764.78 767.80 770.61 773.26 776.52 779.09 781.17 783.37 785.75 788.32 790.78 792.67 794.26 796.20 797.95 799.32 800.78 802.25 804.01 805.06 806.58 808.42 810.08 811.60 813.12 814.60 816.14 817.73 819.56 821.14 822.97 824.89 826.46 828.00 0.00 0.00 0.00
0.00 0.00 0.00 127.82 128.19 128.90 129.58 129.86 130.47 130.91 130.93 131.09 131.76 132.47 133.41 134.04 134.26 134.39 134.80 136.08 138.34 139.07 139.65 140.28 141.42 143.09 144.22 145.83 146.63 147.11 148.21 149.02 150.02 150.08 149.61 149.69 151.74 153.12 154.39 155.76 156.46 157.38 158.37 159.68 160.17 159.92 160.64 161.12 162.38 163.61 164.88 165.65 166.33 166.85 167.30 168.11 170.07 170.52 171.37 172.24 172.45 172.60 173.12 174.57 175.59 175.76 176.46 176.97 178.01 178.25 179.43 180.89 181.45 182.44 182.76 183.79 184.82 185.58 186.41 187.98 190.05 188.59 188.15 191.09 193.78 194.98 195.03 195.37 196.67 197.42 195.68 195.20 197.50 200.39 203.76 204.94 205.72 207.09 208.15 208.16 206.63 207.31 209.81 213.24 214.30 214.78 215.64 216.36 217.78 219.82 222.07 223.75 225.52 226.96 228.28 230.24 232.43 234.97 236.96 239.09 240.73 242.30 243.73 245.54 247.60 249.49 251.61 253.78 256.17 258.41 260.51 262.55 264.33 266.00 267.17 268.15 269.77 271.90 273.68 275.41 277.08 278.81 280.58 282.36 284.06 285.36 286.83 288.51 290.47 292.57 294.49 296.98 299.83 302.02 304.37 306.53 308.21 309.68 311.96 314.35 316.15 317.68 319.28 321.21 322.90 325.00 326.72 328.79 330.95 332.38 335.10 338.73 341.54 342.28 345.73 348.26 351.34 354.50 358.38 361.94 365.23 368.57 371.45 374.77 378.12 380.29 382.76 385.64 387.78 391.90 395.24 399.74 402.93 407.12 409.91 413.37 416.53 418.35 420.55 422.17 422.68 425.09 426.31 428.32 430.74 433.57 436.25 439.10 440.47 440.37 439.90 440.40 444.93 449.80 453.96 456.68 459.49 462.15 464.99 467.49 469.82 472.17 475.34 477.73 481.51 485.09 488.49 491.49 495.43 499.38 501.90 504.81 507.94 511.03 514.04 516.00 517.69 520.16 523.58 526.69 529.39 532.63 534.08 535.86 536.18 539.31 543.27 547.25 550.80 553.59 557.38 560.44 563.04 565.43 567.47 569.28 571.93 574.16 576.30 580.24 584.97 589.31 593.25 597.49 601.65 605.44 608.89 613.76 616.85 620.07 622.73 626.55 630.69 634.04 637.23 640.60 644.13 647.28 650.17 653.95 656.41 658.19 660.14 662.32 664.07 665.72 668.26 670.77 673.79 677.73 682.09 685.10 687.24 689.99 692.55 695.52 699.02 703.18 707.07 710.91 716.07 719.37 722.75 725.80 727.85 730.88 733.88 736.37 739.11 741.24 743.35 746.26 749.03 751.64 753.95 757.09 759.92 761.60 765.37 767.83 771.51 774.46 776.99 778.92 781.57 784.15 786.43 788.84 790.68 792.54 794.29 795.95 797.38 798.66 800.19 801.62 802.94 804.98 806.74 808.33 809.91 811.37 812.92 814.80 816.49 818.11 819.69 821.57 823.31 824.78 826.29 0.00 0.00 0.00
0.00 0.00 0.00 127.44 127.93 128.25 128.37 128.63 129.01 129.45 130.51 130.92 131.19 132.12 132.14 132.94 134.16 134.27 134.35 134.34 135.99 137.78 138.40 139.64 140.96 142.03 143.10 144.04 145.62 146.66 147.62 148.80 149.33 148.97 148.35 149.38 151.21 152.26 153.70 154.76 156.12 157.06 158.25 159.14 159.23 159.32 159.51 160.24 161.35 162.63 163.69 164.38 164.84 165.69 165.76 167.34 168.74 169.54 170.29 171.10 170.93 170.19 172.71 173.14 174.19 174.61 174.93 174.46 176.15 178.17 179.41 179.90 180.13 180.86 181.56 182.50 183.24 184.63 186.43 188.30 187.87 186.48 188.63 190.85 192.67 193.46 192.92 194.30 194.77 193.52 193.55 195.37 198.00 200.65 202.68 203.32 204.43 205.41 205.90 204.61 205.12 206.60 209.93 211.69 212.59 213.34 214.42 215.93 217.55 219.17 220.75 222.30 223.75 225.61 227.32 229.29 231.43 233.54 235.69 237.52 238.95 241.07 242.66 244.27 245.87 247.78 249.71 251.76 253.99 256.11 258.32 260.46 262.52 264.70 266.47 267.60 268.46 269.90 271.71 273.46 275.11 277.15 279.23 280.54 282.14 283.40 284.90 286.51 288.11 290.40 292.60 295.14 298.14 300.67 302.31 304.24 306.38 308.35 310.24 312.52 313.90 315.11 317.35 318.76 320.19 322.47 324.62 326.20 327.25 330.41 333.96 335.69 337.89 341.54 345.00 347.12 350.07 353.94 357.40 360.18 362.69 365.84 369.17 372.66 375.30 377.39 380.09 382.70 386.00 388.63 392.56 395.62 398.97 404.15 408.52 412.29 414.72 416.88 418.87 419.62 421.91 423.53 425.18 427.94 430.15 432.61 434.99 436.08 435.12 435.33 437.29 441.43 446.05 450.00 452.34 454.61 457.05 459.92 462.59 465.00 467.51 470.23 472.53 475.01 478.88 482.83 486.57 489.57 493.12 497.12 500.06 503.32 506.13 508.67 511.10 513.37 515.85 518.64 521.88 524.89 527.07 528.33 530.34 532.03 533.92 538.38 542.05 544.98 548.80 552.37 555.08 557.59 559.92 562.20 563.69 565.03 568.96 572.00 576.00 579.71 583.92 588.45 592.66 597.22 601.22 604.64 608.01 611.63 614.69 617.88 620.67 624.68 628.32 631.62 634.98 639.26 642.47 645.19 647.96 651.27 653.95 655.90 657.25 658.98 660.66 662.72 665.69 668.40 671.86 675.96 679.77 682.47 684.58 687.02 689.30 693.54 697.75 701.29 704.99 709.41 713.52 716.78 720.33 722.99 725.17 728.17 731.44 733.66 736.11 738.12 740.81 743.90 746.80 749.32 751.80 754.51 756.77 759.57 763.34 766.40 769.55 772.31 774.74 777.51 780.04 782.32 784.73 786.91 788.76 790.94 792.44 793.82 795.18 796.89 798.15 799.79 801.60 803.48 805.25 806.93 808.29 809.68 811.68 813.35 814.87 816.47 818.30 819.94 821.58 823.28 824.77 0.00 0.00 0.00
0.00 0.00 0.00 126.98 127.10 127.28 127.64 128.03 128.30 128.57 129.02 130.24 130.71 131.94 132.04 131.94 133.36 133.64 134.11 134.27 134.20 136.16 137.55 138.73 139.73 140.53 141.59 142.72 144.19 145.19 146.18 147.89 148.70 148.19 147.36 148.54 149.82 151.43 152.56 154.21 155.56 156.19 157.37 157.26 157.38 158.24 158.76 159.17 160.20 161.49 162.40 162.78 163.51 164.36 165.03 166.37 167.47 168.24 169.09 169.10 168.68 170.58 171.78 172.20 172.39 173.03 172.79 174.59 175.76 176.86 178.03 178.51 178.76 179.77 180.81 181.74 182.72 184.80 186.57 186.78 184.63 185.84 188.20 189.84 191.37 190.83 192.40 191.71 190.65 191.13 194.20 196.01 197.18 199.42 200.97 201.74 202.98 203.99 203.27 202.73 203.73 206.72 209.57 210.54 211.16 212.42 213.81 215.69 217.19 218.80 220.14 221.56 222.70 224.42 226.57 228.54 230.89 232.28 233.98 235.85 237.97 239.04 241.12 242.99 244.62 246.21 248.04 250.19 252.12 254.16 256.05 258.32 260.72 263.03 265.15 267.01 268.03 269.05 270.26 271.74 273.22 275.08 277.12 278.65 280.26 281.86 283.44 284.71 286.66 288.91 291.41 293.84 296.57 298.33 299.73 303.09 304.21 306.57 308.67 310.54 311.49 313.12 315.02 316.75 318.47 320.47 322.28 321.66 325.50 329.35 331.51 334.01 337.72 340.60 342.88 345.70 349.01 353.07 355.77 358.58 361.27 364.38 366.93 370.03 372.43 374.56 377.06 380.19 383.47 386.63 390.30 393.55 397.73 401.52 407.09 410.36 413.30 415.71 416.71 419.09 420.23 422.38 424.50 426.60 429.05 431.57 432.52 431.03 431.09 433.44 438.05 442.55 445.62 447.64 450.10 452.35 454.38 457.13 460.35 462.80 465.65 467.41 470.44 472.73 476.15 479.87 483.91 486.69 490.30 494.65 497.52 500.65 503.23 505.58 508.38 511.54 514.34 516.85 519.10 522.35 522.87 523.64 526.00 529.23 533.59 537.09 540.13 543.33 547.06 549.59 552.25 554.42 556.91 558.69 559.49 562.05 567.53 571.71 575.53 579.45 583.51 587.68 592.10 597.31 600.10 602.54 606.61 609.13 612.81 615.91 619.16 622.31 625.61 629.23 632.28 636.36 640.17 642.73 646.20 648.96 650.63 652.46 653.80 655.28 656.71 660.50 662.82 666.05 670.01 673.71 677.15 679.44 680.96 683.29 687.60 691.66 695.48 699.27 702.75 706.97 710.04 713.90 717.59 719.93 722.64 725.33 728.23 730.42 733.58 735.11 738.57 742.02 744.74 747.53 750.19 752.99 754.94 758.15 761.56 764.21 767.08 769.96 772.55 775.53 778.33 780.62 782.98 785.01 787.04 788.89 790.67 791.82 793.32 794.77 796.13 798.03 800.19 801.97 803.65 804.98 806.41 808.38 810.31 811.99 813.31 815.10 816.64 818.25 819.97 821.75 823.23 0.00 0.00 0.00
0.00 0.00 0.00 126.20 126.34 126.65 127.01 127.36 127.52 127.87 128.41 129.02 130.19 130.53 131.89 131.97 132.21 132.76 133.36 134.04 134.19 134.44 136.61 137.44 138.28 139.30 140.62 141.31 142.55 143.85 144.96 146.05 147.58 146.82 146.22 147.91 149.03 149.79 151.18 152.99 154.90 156.07 156.68 156.22 156.29 157.14 157.62 158.18 158.96 159.48 160.42 160.94 161.81 162.16 164.29 165.12 165.97 166.83 167.48 167.12 168.18 169.86 170.60 171.21 171.27 171.16 172.02 173.29 174.26 175.55 176.76 176.61 177.47 178.90 180.15 181.64 183.07 184.58 185.48 183.40 183.33 186.46 187.76 188.28 189.27 189.45 188.85 188.07 188.77 191.83 194.62 195.80 196.97 198.18 199.26 200.31 201.25 201.29 200.70 201.99 203.86 206.34 208.10 208.52 209.52 210.94 212.77 214.54 216.19 217.83 219.31 220.73 222.04 224.02 225.43 227.15 228.88 230.59 232.27 234.08 236.38 237.88 239.52 241.39 243.14 244.85 246.47 248.46 250.48 252.07 253.72 255.95 258.65 261.18 263.11 265.65 267.36 268.67 269.58 270.25 271.60 273.17 274.85 276.34 278.51 280.42 282.00 283.75 285.78 287.69 289.96 291.96 293.13 295.65 298.61 300.14 302.56 304.58 306.46 307.77 309.48 310.88 313.14 314.76 316.79 317.86 318.01 319.98 324.07 327.40 329.86 333.11 336.30 338.86 341.48 344.12 347.49 351.27 354.65 357.29 359.76 362.31 365.49 367.57 370.18 372.59 374.81 377.77 381.59 384.16 387.68 392.49 396.36 399.85 404.36 409.14 411.50 412.88 415.14 416.96 419.39 421.38 423.51 425.43 427.54 427.81 427.04 427.19 431.70 435.78 439.56 441.36 443.31 445.67 447.88 449.93 452.53 455.17 458.54 460.13 462.63 465.31 468.10 470.62 473.81 477.22 480.85 484.29 487.34 492.09 495.05 497.89 500.39 503.23 506.67 509.90 512.61 514.88 516.36 517.91 518.20 519.30 522.16 527.86 531.71 535.22 538.49 541.40 544.12 546.31 548.81 550.77 553.82 555.47 558.10 562.00 566.82 570.43 574.26 577.86 581.89 586.43 591.16 594.62 597.64 600.97 604.12 607.23 610.54 613.51 616.83 619.73 622.98 626.50 630.32 634.43 637.57 640.19 643.15 645.78 647.29 648.81 650.01 651.20 654.43 657.45 660.10 663.41 667.28 671.06 674.88 676.23 678.24 682.42 686.36 690.72 694.49 697.86 701.78 704.81 707.77 711.90 715.22 717.62 719.86 722.47 725.16 728.07 730.96 733.38 736.69 740.35 742.76 745.23 747.61 750.24 752.84 756.22 759.43 762.26 765.30 768.01 770.99 773.65 776.50 778.82 781.09 782.95 785.03 786.89 788.58 789.85 791.39 792.63 794.44 796.61 798.03 799.68 801.69 803.21 805.02 806.30 808.51 810.22 811.82 813.55 814.91 816.52 818.34 819.83 821.42 0.00 0.00 0.00
0.00 0.00 0.00 125.51 125.84 126.10 126.32 126.64 126.97 127.37 127.82 128.38 129.14 130.34 130.46 131.93 131.95 131.95 132.62 133.47 134.15 134.09 135.14 136.37 137.43 138.42 139.76 140.46 141.48 142.40 143.05 143.98 146.01 146.11 146.34 146.41 147.86 148.92 149.98 152.16 154.40 156.18 156.37 155.23 155.55 156.26 156.76 156.99 156.90 157.56 157.76 158.48 158.96 161.15 162.83 163.62 164.72 166.39 165.50 165.70 167.86 168.64 169.26 169.65 169.05 170.46 171.03 171.79 173.38 174.38 173.76 175.39 176.93 178.18 179.78 181.50 182.39 183.61 182.72 180.82 182.63 185.70 187.02 187.70 188.28 186.28 185.55 187.14 190.04 192.41 193.10 194.50 195.71 196.36 197.80 199.04 199.40 199.39 200.63 201.66 203.50 206.02 206.53 206.70 207.94 209.19 210.65 212.53 214.69 216.60 218.26 219.80 221.38 223.11 224.64 226.05 227.47 228.97 230.61 232.96 234.99 236.43 237.96 239.99 241.96 243.53 244.87 246.63 248.35 250.29 251.97 253.80 256.41 258.82 261.29 263.74 265.77 267.47 268.56 269.54 270.59 271.89 273.49 274.84 276.81 278.88 280.66 282.79 284.52 286.32 288.11 288.97 291.92 294.29 296.22 297.88 300.74 302.86 304.02 305.75 307.40 309.21 310.77 312.64 313.44 313.22 315.89 318.65 322.01 326.31 329.03 331.38 334.85 336.93 340.02 343.68 348.34 351.75 353.61 355.25 357.80 360.90 363.00 364.29 367.28 370.77 372.97 376.44 379.49 383.34 387.13 390.46 394.98 398.40 402.64 405.67 409.17 410.80 413.07 415.64 418.02 420.13 421.60 423.64 423.62 422.85 423.95 429.00 433.42 435.92 437.60 439.43 441.35 443.39 445.89 447.88 450.17 452.79 455.21 457.42 459.86 462.75 466.39 468.99 471.72 474.18 478.15 481.66 485.77 490.51 492.53 495.57 498.57 501.72 504.77 507.68 509.74 511.20 512.86 513.17 514.86 518.32 523.12 526.90 530.24 533.30 536.37 538.65 540.58 542.83 544.75 547.74 551.29 554.40 557.83 561.89 565.28 569.08 572.99 576.43 580.49 584.43 588.58 592.17 595.60 599.08 602.70 605.80 608.36 611.03 614.22 617.49 620.68 624.23 628.05 631.23 635.44 637.92 640.54 642.22 643.71 645.36 646.03 648.40 652.00 654.27 657.10 660.53 664.10 668.05 670.82 672.57 677.00 681.89 685.93 690.38 693.73 697.61 700.00 701.99 705.11 708.72 711.93 714.70 717.30 719.73 722.69 725.89 729.15 731.88 734.20 737.72 740.28 742.73 745.43 748.33 751.97 754.72 757.85 760.83 763.34 765.80 768.81 771.99 774.71 776.86 778.92 780.54 782.94 784.96 786.53 787.92 789.34 791.06 792.79 794.44 796.33 798.10 799.76 801.61 803.14 804.37 806.57 808.22 809.96 811.67 813.25 814.89 816.40 818.25 819.79 0.00 0.00 0.00
0.00 0.00 0.00 125.02 125.28 125.47 125.67 126.04 126.48 126.79 127.38 127.91 128.48 129.05 130.43 130.52 131.75 131.32 131.83 132.92 133.96 134.03 133.91 135.78 136.83 137.83 139.34 139.81 140.55 141.26 141.91 142.89 144.64 144.82 145.78 145.74 146.79 148.17 149.58 151.12 153.53 155.04 155.42 154.30 154.58 155.43 155.61 155.39 155.34 155.30 155.76 156.33 157.72 159.46 160.95 162.19 164.06 164.80 163.33 165.29 166.15 166.90 167.55 167.68 167.14 168.95 169.57 171.11 172.19 172.29 172.54 173.93 176.04 178.27 179.38 180.35 181.54 181.96 179.37 179.22 183.11 185.59 186.57 187.03 185.94 183.57 184.75 188.08 189.36 189.53 190.77 192.81 193.80 195.18 196.73 197.84 196.78 198.56 199.64 201.62 203.93 204.80 205.49 206.08 207.12 208.52 209.62 211.03 212.79 214.42 216.74 218.53 219.97 221.89 223.53 224.84 226.52 227.74 229.39 231.25 233.20 234.78 236.29 238.21 240.34 241.89 243.26 244.76 246.51 248.29 250.14 251.93 254.17 256.77 259.41 261.42 263.62 265.47 266.84 268.64 269.92 270.74 272.27 273.88 275.40 277.38 279.33 281.20 283.18 284.26 285.65 288.77 290.30 291.97 293.68 296.48 298.77 300.39 302.17 303.36 305.33 306.71 308.22 308.94 309.42 311.76 314.42 316.92 319.79 324.55 327.45 329.94 332.95 336.22 338.52 342.12 345.46 348.50 350.75 353.35 356.88 358.34 359.82 362.02 364.44 369.53 371.46 373.83 377.77 381.62 385.49 388.58 392.47 396.20 400.71 404.80 406.58 409.99 411.93 413.85 415.84 417.97 419.64 420.14 420.22 423.40 426.93 429.40 432.14 433.64 435.66 437.47 439.37 441.58 443.60 445.91 448.21 450.38 452.94 454.47 457.31 460.95 464.88 467.22 469.08 471.91 474.88 478.64 483.29 486.56 489.91 493.25 496.95 500.24 502.60 504.93 506.44 507.46 508.53 509.96 514.92 519.22 522.18 525.15 528.56 531.22 533.60 535.76 536.92 539.01 541.91 545.73 550.34 554.28 557.75 561.47 564.46 568.43 572.10 575.59 579.02 582.84 586.66 590.21 593.61 596.76 600.07 602.99 605.77 608.88 612.18 615.21 618.80 621.83 625.38 628.60 632.52 635.70 637.06 638.37 640.04 641.68 642.63 646.59 648.83 651.25 654.42 657.70 660.95 664.25 666.78 670.95 675.14 679.28 684.20 688.47 692.18 694.79 697.03 699.63 703.00 706.06 708.51 711.17 714.27 717.89 720.76 723.81 727.02 729.60 732.20 735.35 738.59 741.08 744.15 747.34 750.38 753.30 756.15 758.89 761.15 763.69 766.57 769.64 772.48 774.24 776.56 778.27 780.67 783.07 784.33 785.92 787.37 789.24 790.84 792.41 794.59 796.32 797.79 799.54 800.92 802.64 804.21 806.18 808.07 809.97 811.61 813.27 814.95 816.63 818.24 0.00 0.00 0.00
0.00 0.00 0.00 124.48 124.68 124.79 125.17 125.55 125.95 126.38 126.95 127.56 128.14 128.70 129.88 130.43 130.47 130.72 131.14 132.41 133.02 133.49 133.73 135.07 135.89 136.83 138.42 139.00 139.77 140.42 141.17 142.74 143.38 143.60 144.77 145.25 146.31 147.21 148.89 149.84 151.20 152.25 153.38 153.40 153.03 153.63 153.86 154.05 153.98 153.72 154.46 155.23 157.45 158.26 159.46 160.89 162.37 162.63 162.49 164.16 164.41 165.23 165.72 165.59 165.98 167.18 168.83 169.89 170.27 170.59 171.80 173.76 175.30 177.11 178.12 179.25 180.36 178.57 176.77 179.70 183.02 183.68 184.71 185.12 183.06 181.61 184.21 186.57 187.16 187.74 189.68 190.81 192.17 193.76 195.69 197.28 194.97 196.63 200.09 201.14 202.89 203.76 204.63 205.37 206.38 207.64 208.91 210.27 211.29 212.77 214.87 216.78 218.49 220.30 222.24 223.85 225.22 226.21 228.16 229.78 231.44 232.95 234.75 236.67 238.52 240.24 241.78 243.21 244.91 246.48 248.40 250.13 251.96 254.25 256.92 259.09 260.93 262.87 265.16 267.02 268.80 270.04 271.44 272.51 274.00 275.69 277.89 279.84 280.67 282.70 285.42 287.04 288.20 289.84 292.66 294.92 296.53 297.76 299.24 300.96 302.97 304.30 304.08 305.57 308.09 310.20 313.16 316.09 319.46 322.60 325.11 328.13 330.80 333.76 336.55 339.42 343.03 345.23 348.07 351.50 354.03 354.74 356.74 360.15 362.66 365.18 368.38 372.21 376.73 380.51 383.16 386.69 390.56 394.85 399.37 402.33 404.84 407.29 409.81 411.01 412.83 415.61 416.76 416.97 420.47 423.62 426.22 428.42 430.24 431.61 433.69 435.57 437.54 439.65 441.41 444.12 445.77 447.67 449.91 452.08 455.65 458.33 461.22 464.86 467.49 469.25 472.51 475.27 479.97 484.86 487.80 491.37 494.30 497.58 499.90 502.04 503.00 503.31 506.02 510.07 514.69 517.99 520.31 522.93 525.76 527.82 530.40 532.26 534.00 538.23 541.96 546.00 549.90 553.10 556.12 560.09 563.60 567.13 570.21 573.60 577.33 581.17 584.21 587.71 591.38 594.38 597.12 600.41 603.81 606.55 609.51 612.73 615.93 619.28 622.88 626.00 630.44 633.61 633.66 634.95 635.94 637.18 640.56 644.24 646.20 648.59 651.81 654.82 657.93 661.24 665.46 670.00 673.98 677.98 682.41 686.38 689.72 691.39 694.30 697.20 700.58 702.87 705.54 708.85 711.82 714.64 717.68 721.20 724.01 726.74 729.89 733.36 736.92 739.61 742.82 745.79 748.54 751.32 753.56 756.69 759.13 761.50 764.47 767.43 770.07 772.31 774.45 776.21 778.51 780.60 782.17 783.68 785.69 787.35 789.10 790.97 792.73 794.43 795.87 797.33 798.68 800.44 802.18 804.11 806.14 808.15 809.85 811.70 813.27 814.95 816.50 0.00 0.00 0.00
0.00 0.00 0.00 124.31 124.22 124.32 124.69 125.15 125.63 126.06 126.59 127.37 127.99 128.43 128.98 130.33 130.38 130.76 130.91 132.23 132.38 133.13 133.35 134.49 135.13 135.95 137.00 137.76 138.74 139.73 140.33 141.82 142.71 143.50 143.88 144.53 145.20 145.96 147.31 148.41 149.57 150.33 150.77 150.95 151.34 151.54 152.36 152.42 152.62 152.85 153.45 154.40 156.12 157.42 158.54 159.78 160.98 160.71 161.56 162.28 163.10 163.39 164.55 164.61 165.19 165.43 166.92 167.40 168.62 169.13 171.55 173.30 174.82 175.65 177.12 178.19 178.37 175.25 175.62 179.97 180.91 182.23 182.98 183.31 180.83 180.80 183.05 186.36 187.09 187.67 188.85 190.24 191.58 192.97 195.57 194.66 194.42 197.73 198.82 200.54 201.66 202.67 203.63 204.60 205.66 206.73 207.63 209.00 210.28 211.65 212.89 214.80 216.49 218.95 220.60 222.35 223.75 225.45 226.94 228.48 229.92 231.29 233.07 235.02 236.67 238.24 239.68 241.31 242.86 244.42 246.29 248.13 249.96 251.99 254.58 256.60 258.66 260.76 262.72 265.26 267.97 269.59 270.40 271.43 273.03 275.14 276.24 277.24 279.97 282.11 283.51 285.01 286.59 289.01 290.90 292.67 293.71 295.08 297.04 299.11 300.94 299.63 301.62 304.64 306.49 308.94 312.09 315.28 318.47 320.68 323.38 326.42 328.97 331.56 334.06 336.36 340.32 343.62 346.38 348.85 350.56 351.80 355.06 357.21 360.43 363.24 367.45 371.79 374.80 377.46 380.80 385.00 388.76 392.50 396.95 399.82 402.77 404.40 406.25 408.52 410.73 413.32 416.30 417.47 419.73 422.81 425.02 426.85 428.19 429.74 431.68 433.50 435.42 437.57 439.86 441.26 443.18 445.50 447.39 450.38 453.37 455.28 459.30 462.16 464.64 467.19 469.93 473.38 477.28 481.22 485.78 488.62 491.52 494.55 497.08 498.92 499.89 501.76 505.66 509.97 512.92 516.08 518.49 520.30 522.33 524.54 526.73 529.99 533.67 537.47 541.18 544.56 548.24 551.73 555.00 558.57 561.78 565.53 568.93 572.16 575.86 578.95 581.57 585.12 588.75 591.59 595.12 598.34 600.91 603.82 606.78 610.54 614.03 617.56 620.49 623.49 628.62 630.78 630.40 631.55 632.22 634.42 637.93 640.69 642.86 645.72 648.69 651.81 655.65 660.47 665.40 670.03 673.21 677.04 682.98 684.36 687.31 688.23 690.55 693.97 697.44 699.48 701.90 705.19 709.37 712.70 715.94 718.57 721.47 724.75 728.35 732.13 735.22 738.21 741.05 743.90 746.55 749.55 751.96 754.76 756.92 759.69 763.01 765.59 767.95 769.86 772.19 774.11 776.40 778.47 780.25 781.91 783.78 785.63 787.49 789.17 790.63 792.30 793.45 795.19 797.01 798.67 800.38 802.16 804.33 806.30 807.90 809.78 811.47 813.29 814.72 0.00 0.00 0.00
0.00 0.00 0.00 124.18 124.13 124.09 124.34 124.85 125.36 125.78 126.45 127.06 127.63 128.18 128.68 130.27 130.41 130.60 130.89 131.73 132.42 132.58 133.20 134.03 134.74 135.42 136.14 136.69 137.42 139.21 140.55 141.91 142.82 142.97 143.03 143.46 144.19 145.10 145.68 146.71 147.83 148.77 149.33 149.67 149.91 150.33 150.84 151.43 151.62 152.50 153.38 154.14 155.12 156.66 157.99 159.17 159.66 159.48 160.82 161.35 162.03 162.73 163.61 164.03 164.13 164.01 164.47 165.81 166.41 169.14 171.28 172.52 173.49 174.63 176.10 176.84 175.19 173.00 176.23 179.09 178.37 180.53 181.75 181.39 179.39 180.18 182.50 185.43 186.79 187.69 188.52 190.04 191.24 193.26 194.56 193.38 194.86 196.92 197.51 199.02 200.20 201.26 202.20 203.44 204.71 205.51 206.48 207.84 209.06 210.31 211.48 213.17 215.33 217.30 219.15 220.50 222.06 224.04 225.81 227.20 228.52 229.98 231.41 232.83 234.24 235.60 236.91 238.88 240.68 242.33 244.09 245.33 247.39 250.17 252.41 254.45 256.60 258.11 260.65 264.32 266.73 268.26 269.47 270.80 272.11 273.19 274.66 277.25 279.43 280.90 281.93 283.42 285.88 287.48 288.46 289.85 291.17 292.91 295.44 297.29 297.79 298.08 300.71 302.59 304.59 307.52 310.87 313.77 316.63 319.16 321.53 324.18 326.18 328.28 331.56 334.96 338.52 341.62 344.17 346.06 347.25 349.75 352.17 354.61 358.19 362.68 366.31 369.92 372.42 374.83 379.13 382.54 385.94 388.80 392.11 395.33 398.25 401.74 404.28 404.59 406.29 411.04 414.19 415.90 418.91 421.45 423.70 424.93 426.13 427.27 429.14 431.23 433.05 435.40 437.42 438.54 440.83 443.31 445.69 448.18 450.51 453.90 457.07 459.15 462.12 464.91 468.47 471.44 474.10 477.57 480.90 484.18 487.92 490.81 494.37 495.96 498.00 501.37 504.50 508.01 510.76 513.21 515.28 517.31 518.86 520.59 524.09 528.67 532.49 536.22 539.96 543.82 547.31 550.46 553.91 556.98 559.95 563.32 566.81 570.48 573.33 575.98 579.55 582.94 586.02 589.80 592.82 595.66 598.53 601.64 604.86 608.56 611.91 614.95 618.49 622.76 625.23 626.59 627.06 627.39 628.57 632.01 635.15 637.78 639.99 642.81 647.16 651.32 656.13 660.62 665.53 669.87 672.68 676.74 680.33 681.78 683.61 684.60 687.29 690.22 692.94 696.06 698.58 703.15 707.51 710.60 713.03 716.34 719.92 723.40 727.28 730.74 733.80 736.48 739.43 742.23 744.74 747.34 749.85 752.25 754.95 758.31 761.19 763.68 765.91 767.67 770.18 772.20 774.34 776.49 778.26 780.22 781.94 783.57 785.54 787.04 788.29 790.09 791.40 793.21 794.82 796.75 798.49 800.26 802.52 804.32 805.96 807.88 809.58 811.48 812.88 0.00 0.00 0.00
